2.762237071990966686e-01 2.008899688720703125e+00 -1.983788442611694292e+00
5.191226184368133989e-01 2.307211637496948242e+00 -2.278371492028236300e+00
4.511729001998901478e-01 1.899675369262695312e+00 -1.875929427146911577e+00
4.764507710933685303e-01 1.905803084373474121e+00 -1.881980545818805695e+00
5.049260884523392168e-01 1.923527956008911133e+00 -1.899483856558799699e+00
6.118080317974090576e-01 2.224756479263305664e+00 -2.196947023272514343e+00
6.329397857189178467e-01 2.025407314300537109e+00 -2.000089722871780218e+00
6.560536742210387740e-01 2.018626689910888672e+00 -1.993393856287002608e+00
6.873071551322936790e-01 2.036465644836425781e+00 -2.011009824275970637e+00
7.099445700645446999e-01 2.028413057327270508e+00 -2.003057894110679804e+00
7.373731970787048562e-01 2.034132957458496094e+00 -2.008706295490264804e+00
7.669471800327301025e-01 2.045192480087280273e+00 -2.019627574086189092e+00
7.990918099880218728e-01 2.062172412872314453e+00 -2.036395257711410611e+00
8.316102981567382590e-01 2.079025745391845703e+00 -2.053037923574447809e+00
1.127776777744293302e+00 2.098189353942871094e+00 -2.071961987018585027e+00
1.113678586483001665e+00 2.024870157241821289e+00 -1.999559280276298479e+00
1.145365074276924133e+00 2.036204576492309570e+00 -2.010752019286155878e+00
1.172384303808212236e+00 2.038929224014282227e+00 -2.013442608714103521e+00
1.191197800636291548e+00 2.027570724487304688e+00 -2.002226090431213468e+00
1.211059141159057662e+00 2.018431901931762695e+00 -1.993201503157615573e+00
1.246579787135124295e+00 2.035232305526733398e+00 -2.009791901707649320e+00
1.301808357238769531e+00 2.082893371582031250e+00 -2.056857204437255948e+00
2.158820047974586431e-01 1.918951153755187988e+00 -1.918951153755187988e+00
2.371486127376556396e-01 1.897188901901245117e+00 -1.897188901901245117e+00
2.772048890590667614e-01 2.016035556793212891e+00 -2.016035556793212891e+00
5.030761957168579102e-01 2.235894203186035156e+00 -2.235894203186035156e+00
4.479705914855003357e-01 1.886191964149475098e+00 -1.886191964149475098e+00
4.758603572845458984e-01 1.903441429138183594e+00 -1.903441429138183594e+00
5.047892779111862183e-01 1.923006772994995117e+00 -1.923006772994995117e+00
6.463071465492248313e-01 2.350207805633544922e+00 -2.350207805633544922e+00
6.626125574111938477e-01 2.038807868957519531e+00 -2.038807868957519531e+00
6.952206909656524214e-01 2.059913158416748047e+00 -2.059913158416748047e+00
7.141723871231079324e-01 2.040492534637451172e+00 -2.040492534637451172e+00
7.419136255979538186e-01 2.046658277511596680e+00 -2.046658277511596680e+00
7.725646197795867920e-01 2.060172319412231445e+00 -2.060172319412231445e+00
8.077784240245818870e-01 2.084589481353759766e+00 -2.084589481353759766e+00
8.327286720275879350e-01 2.081821680068969727e+00 -2.081821680068969727e+00
1.008999529480934187e+00 2.446059465408325195e+00 -2.446059465408325195e+00
1.114079338312149003e+00 2.072705745697021484e+00 -2.072705745697021484e+00
1.113038015365600542e+00 2.023705482482910156e+00 -2.023705482482910156e+00
1.154662281274795532e+00 2.052732944488525391e+00 -2.052732944488525391e+00
1.174459856748580888e+00 2.042538881301879883e+00 -2.042538881301879883e+00
1.198181736469268843e+00 2.039458274841308594e+00 -2.039458274841308594e+00
1.217091751098632768e+00 2.028486251831054688e+00 -2.028486251831054688e+00
1.253649312257766768e+00 2.046774387359619141e+00 -2.046774387359619141e+00
1.301719397306442261e+00 2.082751035690307617e+00 -2.082751035690307617e+00
1.448253071308136075e+00 2.271769523620605469e+00 -2.271769523620605469e+00
2.145679369568824768e-01 1.907270550727844238e+00 -1.931111432611942291e+00
2.362426370382308960e-01 1.889941096305847168e+00 -1.913565360009670258e+00
2.774692147970199696e-01 2.017957925796508789e+00 -2.043182399868965327e+00
4.938301920890807994e-01 2.194800853729248047e+00 -2.222235864400863736e+00
4.422347366809845082e-01 1.862040996551513672e+00 -1.885316509008407637e+00
4.766072034835815430e-01 1.906428813934326172e+00 -1.930259174108505338e+00
5.040014594793319480e-01 1.920005559921264648e+00 -1.944005629420280545e+00
6.552368521690368208e-01 2.382679462432861328e+00 -2.412462955713272184e+00
7.545408308506011963e-01 2.321664094924926758e+00 -2.350684896111488342e+00
6.953929692506790605e-01 2.060423612594604492e+00 -2.086178907752036960e+00
7.130187392234802468e-01 2.037196397781372070e+00 -2.062661352753639044e+00
7.477095752954483476e-01 2.062647104263305664e+00 -2.088430193066597162e+00
7.794115841388702393e-01 2.078430891036987305e+00 -2.104411277174949468e+00
8.084404706954956277e-01 2.086297988891601562e+00 -2.112376713752746493e+00
8.326029777526855469e-01 2.081507444381713867e+00 -2.107526287436485291e+00
1.006294772028923035e+00 2.439502477645874023e+00 -2.469996258616447449e+00
1.193956634402275174e+00 2.221314668655395508e+00 -2.249081102013588129e+00
1.122490143775940030e+00 2.040891170501708984e+00 -2.066402310132980258e+00
1.155515760183334351e+00 2.054250240325927734e+00 -2.079928368330001831e+00
1.183681124448776156e+00 2.058575868606567383e+00 -2.084308066964149386e+00
1.200592777132988065e+00 2.043562173843383789e+00 -2.069106701016425909e+00
1.221366405487060547e+00 2.035610675811767578e+00 -2.061055809259414673e+00
1.256210118532180786e+00 2.050955295562744141e+00 -2.076592236757278442e+00
1.290970891714096069e+00 2.065553426742553711e+00 -2.091372844576835810e+00
1.391305071115493730e+00 2.182439327239990234e+00 -2.209719818830490290e+00
2.136601433157920837e-01 1.899201273918151855e+00 -1.946681305766105652e+00
2.351701408624649048e-01 1.881361126899719238e+00 -1.928395155072212264e+00
2.834520310163498036e-01 2.061469316482543945e+00 -2.113006049394607455e+00
5.053996860980987105e-01 2.246220827102661133e+00 -2.302376347780227483e+00
4.433513134717941284e-01 1.866742372512817383e+00 -1.913410931825637817e+00
4.761242866516113281e-01 1.904497146606445312e+00 -1.952109575271606445e+00
5.029094785451888594e-01 1.915845632553100586e+00 -1.963741773366928012e+00
6.698800981044769065e-01 2.435927629470825195e+00 -2.496825820207595914e+00
6.886556088924408181e-01 2.040461063385009766e+00 -2.091472589969634921e+00
7.202689886093139870e-01 2.057911396026611328e+00 -2.109359180927276700e+00
7.529360592365265115e-01 2.077064990997314453e+00 -2.128991615772247492e+00
7.822701930999755859e-01 2.086053848266601562e+00 -2.138205194473266513e+00
8.151243150234221968e-01 2.103546619415283203e+00 -2.156135284900665194e+00
8.417020797729491965e-01 2.104255199432373047e+00 -2.156861579418182462e+00
1.118601870536804155e+00 2.033821582794189453e+00 -2.084667122364044278e+00
1.147551476955413818e+00 2.040091514587402344e+00 -2.091093802452087314e+00
1.181843149662017867e+00 2.055379390716552734e+00 -2.106763875484466642e+00
1.203140807151794389e+00 2.047899246215820312e+00 -2.099096727371215998e+00
1.227602148056030185e+00 2.046003580093383789e+00 -2.097153669595718473e+00
1.262429010868072465e+00 2.061108589172363281e+00 -2.112636303901672452e+00
1.282070577144622803e+00 2.051312923431396484e+00 -2.102595746517181396e+00
1.373376721143722445e+00 2.154316425323486328e+00 -2.208174335956573309e+00
2.120892137289047130e-01 1.885237455368041992e+00 -1.955933859944343656e+00
2.342083901166915894e-01 1.873667120933532715e+00 -1.943929637968540236e+00
2.862379908561706321e-01 2.081730842590332031e+00 -2.159795749187469305e+00
5.009976983070373313e-01 2.226656436920166016e+00 -2.310156053304672330e+00
4.428433924913406372e-01 1.864603757858276367e+00 -1.934526398777961731e+00
4.732362627983093262e-01 1.892945051193237305e+00 -1.963930490612983748e+00
4.976238101720810159e-01 1.895709753036499023e+00 -1.966798868775367692e+00
6.648962974548340288e-01 2.417804718017578125e+00 -2.508472394943237482e+00
6.997904509305954424e-01 2.073453187942504883e+00 -2.151207682490348994e+00
7.335954785346985307e-01 2.095987081527709961e+00 -2.174586597084998907e+00
7.635657697916030662e-01 2.106388330459594727e+00 -2.185377892851829706e+00
7.915478646755218506e-01 2.110794305801391602e+00 -2.189949092268943964e+00
8.217381298542022483e-01 2.120614528656005859e+00 -2.200137573480605901e+00
8.458575248718261941e-01 2.114643812179565430e+00 -2.193942955136299222e+00
1.156502699851989835e+00 2.102732181549072266e+00 -2.181584638357162653e+00
1.149390935897827148e+00 2.043361663818359375e+00 -2.119987726211547852e+00
1.177569758892059282e+00 2.047947406768798828e+00 -2.124745434522628873e+00
1.200493466854095415e+00 2.043393135070800781e+00 -2.120020377635955633e+00
1.231580114364624112e+00 2.052633523941040039e+00 -2.129607281088829129e+00
1.271886003017425493e+00 2.076548576354980469e+00 -2.154419147968292148e+00
1.284830570220947266e+00 2.055728912353515625e+00 -2.132818746566772283e+00
1.333098730444908231e+00 2.091135263442993164e+00 -2.169552835822105230e+00
2.141827851533889826e-01 1.903846979141235352e+00 -1.999039328098297208e+00
2.337315976619720459e-01 1.869852781295776367e+00 -1.963345420360565141e+00
2.892568379640579335e-01 2.103686094284057617e+00 -2.208870398998260320e+00
5.125190198421478716e-01 2.277862310409545898e+00 -2.391755425930023105e+00
4.397679790854454041e-01 1.851654648780822754e+00 -1.944237381219863892e+00
4.702962040901184082e-01 1.881184816360473633e+00 -1.975244057178497270e+00
4.987765923142433167e-01 1.900101304054260254e+00 -1.995106369256973267e+00
8.355695575475692305e-01 2.475761651992797852e+00 -2.599549734592437655e+00
7.522267460823058860e-01 2.149219274520874023e+00 -2.256680238246917547e+00
7.617824405431747881e-01 2.101468801498413086e+00 -2.206542241573333563e+00
7.947383522987365723e-01 2.119302272796630859e+00 -2.225267386436462491e+00
8.254927456378936546e-01 2.130303859710693359e+00 -2.236819052696227939e+00
8.476931571960448775e-01 2.119232892990112305e+00 -2.225194537639617831e+00
1.181167602539062500e+00 2.099853515625000000e+00 -2.204846191406249822e+00
1.179091191291809171e+00 2.050593376159667969e+00 -2.153123044967651278e+00
1.206807863712310747e+00 2.054141044616699219e+00 -2.156848096847534091e+00
1.238949680328369052e+00 2.064916133880615234e+00 -2.168161940574646174e+00
1.278516995906829878e+00 2.087374687194824219e+00 -2.191743421554565252e+00
1.294554024934768677e+00 2.071286439895629883e+00 -2.174850761890411377e+00
1.329809018969535739e+00 2.085974931716918945e+00 -2.190273678302764981e+00
2.150457724928855896e-01 1.911517977714538574e+00 -2.030987851321697235e+00
2.357448935508728027e-01 1.885959148406982422e+00 -2.003831595182418823e+00
2.892215311527251975e-01 2.103429317474365234e+00 -2.234893649816513062e+00
5.173748373985290749e-01 2.299443721771240234e+00 -2.443158954381942749e+00
4.359006449580192788e-01 1.835371136665344238e+00 -1.950081832706928253e+00
4.654336273670196533e-01 1.861734509468078613e+00 -1.978092916309833527e+00
4.967499688267708047e-01 1.892380833625793457e+00 -2.010654635727405548e+00
7.483642578125000444e-01 2.138183593750000000e+00 -2.271820068359375000e+00
7.574693143367767778e-01 2.089570522308349609e+00 -2.220168679952621460e+00
7.930628657341003418e-01 2.114834308624267578e+00 -2.247011452913284302e+00
8.310883611440658125e-01 2.144744157791137695e+00 -2.278790667653083801e+00
8.549139976501465288e-01 2.137284994125366211e+00 -2.270865306258201599e+00
1.277594625949859619e+00 2.271279335021972656e+00 -2.413234293460845947e+00
1.193326550722122237e+00 2.075350522994995117e+00 -2.205059930682182312e+00
1.204745739698410034e+00 2.050631046295166016e+00 -2.178795486688613892e+00
1.243842315673828081e+00 2.073070526123046875e+00 -2.202637434005737305e+00
1.279429692029953047e+00 2.088864803314208984e+00 -2.219418853521347046e+00
1.298219114542007446e+00 2.077150583267211914e+00 -2.206972494721412659e+00
1.323969036340713501e+00 2.076814174652099609e+00 -2.206615060567855835e+00
1.579564821720123247e+00 2.430099725723266602e+00 -2.581980958580970764e+00
2.211987465620040838e-01 1.966211080551147461e+00 -2.113676911592483609e+00
2.398677468299865723e-01 1.918941974639892578e+00 -2.062862622737884344e+00
2.916016429662704468e-01 2.120739221572875977e+00 -2.279794663190841675e+00
5.267367124557494895e-01 2.341052055358886719e+00 -2.516630959510803400e+00
4.403227850794791953e-01 1.853990674018859863e+00 -1.993039974570274264e+00
4.659785628318786621e-01 1.863914251327514648e+00 -2.003707820177078158e+00
5.008739367127418296e-01 1.908091187477111816e+00 -2.051198026537895291e+00
8.182858347892760786e-01 2.337959527969360352e+00 -2.513306492567062289e+00
7.717971384525299516e-01 2.129095554351806641e+00 -2.288777720928192316e+00
7.982586622238159180e-01 2.128689765930175781e+00 -2.288341498374939054e+00
8.356654077768326250e-01 2.156555891036987305e+00 -2.318297582864761175e+00
8.585920333862304688e-01 2.146480083465576172e+00 -2.307466089725494385e+00
1.022026169300079390e+00 2.477639198303222656e+00 -2.663462138175964444e+00
1.202580171823501631e+00 2.091443777084350586e+00 -2.248302060365676702e+00
1.204853594303131104e+00 2.050814628601074219e+00 -2.204625725746154785e+00
1.245215749740600675e+00 2.075359582901000977e+00 -2.231011551618576227e+00
1.276410347223281949e+00 2.083935260772705078e+00 -2.240230405330657870e+00
1.298887729644775391e+00 2.078220367431640625e+00 -2.234086894989013583e+00
1.321998614072799727e+00 2.073723316192626953e+00 -2.229252564907073797e+00
1.538126683235168546e+00 2.366348743438720703e+00 -2.543824899196624578e+00
2.151193410158157349e+00 2.494137287139892578e+00 -2.681197583675384521e+00
2.169099628925323486e+00 2.478971004486083984e+00 -2.664893829822540194e+00
2.187276291847228826e+00 2.464536666870117188e+00 -2.649376916885375799e+00
2.206554865837097257e+00 2.451727628707885742e+00 -2.635607200860976995e+00
2.227724680304527194e+00 2.441342115402221680e+00 -2.624442774057388128e+00
2.237085986137389959e+00 2.418471336364746094e+00 -2.599856686592102228e+00
2.262539640069007874e+00 2.413375616073608398e+00 -2.594378787279128851e+00
2.296303844451904386e+00 2.417161941528320312e+00 -2.598449087142944425e+00
2.358174154162406833e+00 2.450051069259643555e+00 -2.633804899454116999e+00
2.409670346975326449e+00 2.471456766128540039e+00 -2.656816023588180364e+00
2.430607810616493225e+00 2.461374998092651367e+00 -2.645978122949600220e+00
2.465076923370361328e+00 2.465076923370361328e+00 -2.649957692623138517e+00
2.496675896644592108e+00 2.465852737426757812e+00 -2.650791692733764471e+00
2.538595819473266513e+00 2.476678848266601562e+00 -2.662429761886596857e+00
2.573373779654502869e+00 2.480360269546508789e+00 -2.666387289762496948e+00
2.249370485544204823e-01 1.999440431594848633e+00 -2.174391469359397977e+00
2.405367791652679443e-01 1.924294233322143555e+00 -2.092669978737831116e+00
2.919326812028885110e-01 2.123146772384643555e+00 -2.308922114968299688e+00
5.233227968215942161e-01 2.325879096984863281e+00 -2.529393517971038730e+00
4.394029214978217857e-01 1.850117564201354980e+00 -2.012002851068973364e+00
4.665172696113586426e-01 1.866069078445434570e+00 -2.029350122809410184e+00
5.041019082069396751e-01 1.920388221740722656e+00 -2.088422191143036066e+00
7.844830274581908736e-01 2.164091110229492188e+00 -2.353449082374572843e+00
7.964747250080108643e-01 2.123932600021362305e+00 -2.309776702523231418e+00
8.359931975603103194e-01 2.157401800155639648e+00 -2.346174457669258029e+00
8.575331687927245650e-01 2.143832921981811523e+00 -2.331418302655220209e+00
9.596341162919997947e-01 2.326385736465454102e+00 -2.529944488406181247e+00
1.311749184131622226e+00 2.281302928924560547e+00 -2.480916935205459417e+00
1.224126231670379594e+00 2.083619117736816406e+00 -2.265935790538788019e+00
1.245457363128662065e+00 2.075762271881103516e+00 -2.257391470670699896e+00
1.279491609334945768e+00 2.088965892791748047e+00 -2.271750408411025823e+00
1.300249248743057251e+00 2.080398797988891602e+00 -2.262433692812919617e+00
1.322980937361717180e+00 2.075264215469360352e+00 -2.256849834322929294e+00
1.507128393650055020e+00 2.318659067153930664e+00 -2.521541735529899686e+00
1.997891807556152255e+00 2.497364759445190430e+00 -2.715884175896644770e+00
2.012300014495849609e+00 2.476676940917968750e+00 -2.693386173248291104e+00
2.031225639581680120e+00 2.462091684341430664e+00 -2.677524706721305936e+00
2.057845938205718817e+00 2.457129478454589844e+00 -2.672128307819366277e+00
2.080792057514190496e+00 2.447990655899047852e+00 -2.662189838290214716e+00
2.106292372941970914e+00 2.442078113555908203e+00 -2.655759948492049993e+00
2.129767954349517822e+00 2.434020519256591797e+00 -2.646997314691543757e+00
2.146713879704475580e+00 2.418832540512084961e+00 -2.630480387806892306e+00
2.158833646774291903e+00 2.398704051971435547e+00 -2.608590656518936068e+00
2.168596616387367337e+00 2.376544237136840820e+00 -2.584491857886314303e+00
2.178491461277007879e+00 2.355125904083251953e+00 -2.561199420690536410e+00
2.197555303573608398e+00 2.344058990478515625e+00 -2.549164152145385831e+00
2.226751852035522283e+00 2.343949317932128906e+00 -2.549044883251190274e+00
2.240875387191772372e+00 2.328182220458984375e+00 -2.531898164749145419e+00
2.246213704347610474e+00 2.303808927536010742e+00 -2.505392208695411682e+00
2.292195254564285190e+00 2.321210384368896484e+00 -2.524316293001175104e+00
2.347087621688842773e+00 2.347087621688842773e+00 -2.552457788586616427e+00
2.370499876141548334e+00 2.341234445571899414e+00 -2.546092459559440524e+00
2.376837909221649170e+00 2.318866252899169922e+00 -2.521767050027847290e+00
2.409075027704238980e+00 2.322000026702880859e+00 -2.525175029039382846e+00
2.251720100641250721e-01 2.001528978347778320e+00 -2.201681876182556064e+00
2.430608123540878296e-01 1.944486498832702637e+00 -2.138935148715972900e+00
2.953602612018585427e-01 2.148074626922607422e+00 -2.362882089614868342e+00
5.342569828033447710e-01 2.374475479125976562e+00 -2.611923027038574041e+00
4.432134613394737022e-01 1.866161942481994629e+00 -2.052778136730194269e+00
4.711393117904663086e-01 1.884557247161865234e+00 -2.073012971878051669e+00
5.053380221128463967e-01 1.925097227096557617e+00 -2.117606949806213557e+00
8.162732005119324175e-01 2.251788139343261719e+00 -2.476966953277587979e+00
8.038315773010253906e-01 2.143550872802734375e+00 -2.357905960083007901e+00
8.356099754571915117e-01 2.156412839889526367e+00 -2.372054123878478915e+00
8.584325790405273882e-01 2.146081447601318359e+00 -2.360689592361450373e+00
9.351443678140640703e-01 2.267016649246215820e+00 -2.493718314170837225e+00
1.245107734203338534e+00 2.119332313537597656e+00 -2.331265544891357511e+00
1.243464374542236239e+00 2.072440624237060547e+00 -2.279684686660766513e+00
1.276621216535568148e+00 2.084279537200927734e+00 -2.292707490921020330e+00
1.299164146184921265e+00 2.078662633895874023e+00 -2.286528897285461603e+00
1.318306428194045976e+00 2.067931652069091797e+00 -2.274724817276001065e+00
1.460247015953064054e+00 2.246533870697021484e+00 -2.471187257766723544e+00
1.903370016813278109e+00 2.496222972869873047e+00 -2.745845270156860529e+00
1.922357368469238326e+00 2.480461120605468750e+00 -2.728507232666015803e+00
1.953853923082351729e+00 2.481084346771240234e+00 -2.729192781448364080e+00
1.975620460510253862e+00 2.469525575637817383e+00 -2.716478133201599032e+00
1.985025510191917419e+00 2.443108320236206055e+00 -2.687419152259826749e+00
2.000992977619171054e+00 2.425446033477783203e+00 -2.667990636825561701e+00
2.022878754138946356e+00 2.415377616882324219e+00 -2.656915378570556818e+00
2.038866424560546786e+00 2.398666381835937500e+00 -2.638533020019531161e+00
2.061785334348678500e+00 2.390475749969482422e+00 -2.629523324966430486e+00
2.086359709501266479e+00 2.384411096572875977e+00 -2.622852206230163574e+00
2.103670498728752225e+00 2.370332956314086914e+00 -2.607366251945495428e+00
2.113307118415832520e+00 2.348119020462036133e+00 -2.582930922508239746e+00
2.131410694122314542e+00 2.335792541503906250e+00 -2.569371795654296964e+00
2.142115616798400790e+00 2.315800666809082031e+00 -2.547380733489990057e+00
2.162579745054244995e+00 2.306751728057861328e+00 -2.537426900863647639e+00
2.185392475128173917e+00 2.300413131713867188e+00 -2.530454444885253729e+00
2.199009671807289124e+00 2.284685373306274414e+00 -2.513153910636901855e+00
2.205433112382888972e+00 2.261982679367065430e+00 -2.488180947303772150e+00
2.226101824641227633e+00 2.254280328750610352e+00 -2.479708361625671209e+00
2.243129014968872070e+00 2.243129014968872070e+00 -2.467441916465759277e+00
2.260204517841339023e+00 2.232300758361816406e+00 -2.455530834197998225e+00
2.269310152530670255e+00 2.213961124420166016e+00 -2.435357236862182528e+00
2.291205364465713323e+00 2.208390712738037109e+00 -2.429229784011840643e+00
2.286653459072112982e-01 2.032580852508544922e+00 -2.261246198415756137e+00
2.444995939731597900e-01 1.955996751785278320e+00 -2.176046386361122131e+00
2.967975467443466076e-01 2.158527612686157227e+00 -2.401361969113350092e+00
5.234577119350433128e-01 2.326478719711303711e+00 -2.588207575678825201e+00
4.406707704067230336e-01 1.855455875396728516e+00 -2.064194661378860651e+00
4.737425446510314941e-01 1.894970178604125977e+00 -2.108154323697090327e+00
5.125763699412345664e-01 1.952671885490417480e+00 -2.172347472608089358e+00
8.993732839822768943e-01 2.481029748916625977e+00 -2.760145595669746488e+00
8.161509633064270020e-01 2.176402568817138672e+00 -2.421247857809066595e+00
8.322641730308533159e-01 2.147778511047363281e+00 -2.389403593540191828e+00
8.637335777282715288e-01 2.159333944320678711e+00 -2.402259013056755155e+00
9.178769767284393755e-01 2.225156307220458984e+00 -2.475486391782760531e+00
1.266583687067031949e+00 2.155887126922607422e+00 -2.398424428701400934e+00
1.246880149841308683e+00 2.078133583068847656e+00 -2.311923611164092840e+00
1.268064069747924849e+00 2.070308685302734375e+00 -2.303218412399291815e+00
1.295850127935409546e+00 2.073360204696655273e+00 -2.306613227725029081e+00
1.309142535924911588e+00 2.053556919097900391e+00 -2.284582072496414096e+00
1.426483869552612305e+00 2.194590568542480469e+00 -2.441482007503509521e+00
1.630150908231735141e+00 2.460605144500732422e+00 -2.737423223257064997e+00
1.803573155403137118e+00 2.487687110900878906e+00 -2.767551910877227961e+00
1.825741991400718689e+00 2.475582361221313477e+00 -2.754085376858711243e+00
1.850089609622955322e+00 2.466786146163940430e+00 -2.744299587607383906e+00
1.867388951778411910e+00 2.449034690856933594e+00 -2.724551093578338801e+00
1.885082459449768155e+00 2.432364463806152344e+00 -2.706005465984344660e+00
1.903815248608589084e+00 2.417543172836303711e+00 -2.689516779780388056e+00
1.928779792785644487e+00 2.410974740982055664e+00 -2.682209399342537104e+00
1.950890198349952698e+00 2.401095628738403320e+00 -2.671218886971473694e+00
1.963055562973022417e+00 2.379461288452148438e+00 -2.647150683403014959e+00
1.981396755576133817e+00 2.365846872329711914e+00 -2.632004645466804682e+00
2.002463364601135165e+00 2.355839252471923828e+00 -2.620871168375015436e+00
2.026036745309829801e+00 2.349028110504150391e+00 -2.613293772935867398e+00
2.049671202898025513e+00 2.342481374740600586e+00 -2.606010529398917974e+00
2.064967808127403437e+00 2.326724290847778320e+00 -2.588480773568153204e+00
2.069866061210632324e+00 2.299851179122924805e+00 -2.558584436774253845e+00
2.089800968766212463e+00 2.290192842483520508e+00 -2.547839537262916565e+00
2.107028812170028687e+00 2.277868986129760742e+00 -2.534129247069358826e+00
2.121068984270095825e+00 2.262473583221435547e+00 -2.517001861333846957e+00
2.150117957592010409e+00 2.263282060623168945e+00 -2.517901292443275540e+00
2.170922267436981024e+00 2.255503654479980469e+00 -2.509247815608978360e+00
2.182555979490280240e+00 2.238518953323364258e+00 -2.490352335572242559e+00
2.196532651782035828e+00 2.224336862564086914e+00 -2.474574759602546692e+00
2.213399648666381836e+00 2.213399648666381836e+00 -2.462407109141349970e+00
2.220851925015449702e+00 2.193434000015258789e+00 -2.440195325016975225e+00
2.233913314342498957e+00 2.179427623748779297e+00 -2.424613231420516879e+00
2.246837025880813687e+00 2.165626049041748047e+00 -2.409258979558944525e+00
2.395115822553634533e-01 2.128991842269897461e+00 -2.395115822553634644e+00
2.501507699489593506e-01 2.001206159591674805e+00 -2.251356929540634155e+00
3.020020723342895508e-01 2.196378707885742188e+00 -2.470926046371459961e+00
5.098855733871460183e-01 2.266158103942871094e+00 -2.549427866935729980e+00
4.453438699245452770e-01 1.875132083892822266e+00 -2.109523594379425049e+00
4.685194492340087891e-01 1.874077796936035156e+00 -2.108337521553039551e+00
5.159066051244736162e-01 1.965358495712280273e+00 -2.211028307676315308e+00
8.256725370883941650e-01 2.201793432235717773e+00 -2.477017611265182495e+00
8.376283586025238259e-01 2.161621570587158203e+00 -2.431824266910552979e+00
8.652220726013183372e-01 2.163055181503295898e+00 -2.433437079191207886e+00
9.104369759559631792e-01 2.207119941711425781e+00 -2.483009934425354004e+00
1.044810074567794844e+00 2.458376646041870117e+00 -2.765673726797103882e+00
1.326604774594307035e+00 2.258050680160522461e+00 -2.540307015180587769e+00
1.236587619781494229e+00 2.060979366302490234e+00 -2.318601787090301514e+00
1.268589636683464139e+00 2.071166753768920898e+00 -2.330062597990036011e+00
1.292649060487747192e+00 2.068238496780395508e+00 -2.326768308877944946e+00
1.309301367402076810e+00 2.053806066513061523e+00 -2.310531824827194214e+00
1.405442535877227783e+00 2.162219285964965820e+00 -2.432496696710586548e+00
1.591016170382499650e+00 2.401533842086791992e+00 -2.701725572347640991e+00
1.646039754152297974e+00 2.438577413558959961e+00 -2.743399590253829956e+00
1.684338480234146118e+00 2.449946880340576172e+00 -2.756190240383148193e+00
1.716428470611572221e+00 2.452040672302246094e+00 -2.758545756340026855e+00
1.735434338450431824e+00 2.435697317123413086e+00 -2.740159481763839722e+00
1.760064899921417236e+00 2.427675724029541016e+00 -2.731135189533233643e+00
1.782949870824813932e+00 2.417559146881103516e+00 -2.719754040241241455e+00
1.812275290489196777e+00 2.416367053985595703e+00 -2.718412935733795166e+00
1.831888368725776761e+00 2.402476549148559570e+00 -2.702786117792129517e+00
1.846503597497940019e+00 2.382585287094116211e+00 -2.680408447980880737e+00
1.865997335314750760e+00 2.369520425796508789e+00 -2.665710479021072388e+00
1.881774902343750000e+00 2.352218627929687500e+00 -2.646245956420898438e+00
1.900916159152984619e+00 2.339589118957519531e+00 -2.632037758827209473e+00
1.915456670522689864e+00 2.321765661239624023e+00 -2.611986368894577026e+00
1.939594078063964888e+00 2.315933227539062500e+00 -2.605424880981445312e+00
1.960742616653442294e+00 2.306756019592285156e+00 -2.595100522041320801e+00
1.981739455461501986e+00 2.297668933868408203e+00 -2.584877550601959229e+00
2.006075620651245117e+00 2.292657852172851562e+00 -2.579240083694458008e+00
2.030628448724746793e+00 2.288032054901123047e+00 -2.574036061763763428e+00
2.042846345901489169e+00 2.269829273223876953e+00 -2.553557932376861572e+00
2.054583719372749417e+00 2.251598596572875977e+00 -2.533048421144485474e+00
2.070620989799499601e+00 2.238509178161621094e+00 -2.518322825431823730e+00
2.083541750907897949e+00 2.222444534301757812e+00 -2.500250101089477539e+00
2.108507168292999445e+00 2.219481229782104492e+00 -2.496916383504867554e+00
2.123841208219528376e+00 2.206588268280029297e+00 -2.482411801815032959e+00
2.130601358413696467e+00 2.185232162475585938e+00 -2.458386182785034180e+00
2.151797953248023809e+00 2.179035902023315430e+00 -2.451415389776229858e+00
2.171697854995727539e+00 2.171697854995727539e+00 -2.443160086870193481e+00
2.176661458611488520e+00 2.149789094924926758e+00 -2.418512731790542603e+00
2.184843468666076483e+00 2.131554603576660156e+00 -2.397998929023742676e+00
2.198542353510856806e+00 2.119076967239379883e+00 -2.383961588144302368e+00
2.368428111076354980e-01 2.105269432067871094e+00 -2.394743978977203369e+00
2.516038119792938232e-01 2.012830495834350586e+00 -2.289594689011573703e+00
3.063963770866394154e-01 2.228337287902832031e+00 -2.534733664989471613e+00
5.144086360931396928e-01 2.286260604858398438e+00 -2.600621438026428311e+00
4.462198778986931069e-01 1.878820538520812988e+00 -2.137158362567424863e+00
4.676278233528137207e-01 1.870511293411254883e+00 -2.127706596255302340e+00
5.136783957481384499e-01 1.956870079040527344e+00 -2.225939714908599765e+00
8.365457653999328613e-01 2.230788707733154297e+00 -2.537522155046462835e+00
8.384640932083129439e-01 2.163778305053710938e+00 -2.461297821998596369e+00
8.637758255004882590e-01 2.159439563751220703e+00 -2.456362503767013372e+00
8.978097259998321089e-01 2.176508426666259766e+00 -2.475778335332870395e+00
9.974756598472594993e-01 2.347001552581787109e+00 -2.669714266061782748e+00
1.431660902500152543e+00 2.436869621276855469e+00 -2.771939194202423185e+00
1.250050449371337802e+00 2.083417415618896484e+00 -2.369887310266494573e+00
1.257507023215293840e+00 2.053072690963745117e+00 -2.335370185971259893e+00
1.284773945808410645e+00 2.055638313293457031e+00 -2.338288581371307462e+00
1.295957243442535489e+00 2.032874107360839844e+00 -2.312394297122955411e+00
1.352748000621795565e+00 2.081150770187377930e+00 -2.367309001088142573e+00
1.524765285849571272e+00 2.301532506942749023e+00 -2.617993226647377103e+00
1.604401195049285800e+00 2.376890659332275391e+00 -2.703713124990463346e+00
1.643869563937187195e+00 2.391083002090454102e+00 -2.719856914877891718e+00
1.688291645050048917e+00 2.411845207214355469e+00 -2.743473923206329435e+00
1.711342576146125838e+00 2.401884317398071289e+00 -2.732143411040306002e+00
1.729723066091537476e+00 2.385824918746948242e+00 -2.713875845074653625e+00
1.752568268775939853e+00 2.376363754272460938e+00 -2.703113770484924405e+00
1.777185916900634766e+00 2.369581222534179688e+00 -2.695398640632629572e+00
1.795091593265533358e+00 2.354218482971191406e+00 -2.677923524379730136e+00
1.813081234693527222e+00 2.339459657669067383e+00 -2.661135360598564148e+00
1.832576447725295932e+00 2.327081203460693359e+00 -2.647054868936538519e+00
1.844897842407226651e+00 2.306122303009033203e+00 -2.623214119672775180e+00
1.848079591989517212e+00 2.274559497833251953e+00 -2.587311428785324274e+00
1.872195500135421797e+00 2.269327878952026367e+00 -2.581360462307929815e+00
1.896526855230331376e+00 2.264509677886962891e+00 -2.575879758596420377e+00
1.909173202514648393e+00 2.246086120605468750e+00 -2.554922962188720614e+00
1.937981754541397095e+00 2.246935367584228516e+00 -2.555888980627059937e+00
1.962902694940567017e+00 2.243317365646362305e+00 -2.551773503422737122e+00
1.988217952847480818e+00 2.240245580673217773e+00 -2.548279348015785040e+00
2.008724141120910467e+00 2.231915712356567383e+00 -2.538804122805595309e+00
2.011882728338241666e+00 2.204802989959716797e+00 -2.507963401079178034e+00
2.030821967124938787e+00 2.195483207702636719e+00 -2.497362148761749445e+00
2.047243416309356689e+00 2.183726310729980469e+00 -2.483988678455352872e+00
2.067838835716247381e+00 2.176672458648681641e+00 -2.475964921712875189e+00
2.091455912590026944e+00 2.172941207885742188e+00 -2.471720623970031561e+00
2.105469846725463778e+00 2.159456253051757812e+00 -2.456381487846374334e+00
2.113570299744606196e+00 2.140324354171752930e+00 -2.434618952870368780e+00
2.122670173645019531e+00 2.122670173645019531e+00 -2.414537322521209894e+00
2.145875868201255976e+00 2.119383573532104492e+00 -2.410798814892769037e+00
2.140235984325408847e+00 2.088035106658935547e+00 -2.375139933824539362e+00
2.144349399209022344e+00 2.066842794418334961e+00 -2.351033678650856107e+00
2.455495834350585882e-01 2.182662963867187500e+00 -2.510062408447265803e+00
2.559855878353118896e-01 2.047884702682495117e+00 -2.355067408084869474e+00
3.125081598758697732e-01 2.272786617279052734e+00 -2.613704609870910467e+00
5.121945261955260786e-01 2.276420116424560547e+00 -2.617883133888244451e+00
4.471360325813293346e-01 1.882678031921386719e+00 -2.165079736709594638e+00
4.696934223175048828e-01 1.878773689270019531e+00 -2.160589742660522283e+00
5.085487827658653481e-01 1.937328696250915527e+00 -2.227928000688552679e+00
8.512429296970367432e-01 2.269981145858764648e+00 -2.610478317737579435e+00
8.356344580650330034e-01 2.156476020812988281e+00 -2.479947423934936612e+00
8.654412269592285378e-01 2.163603067398071289e+00 -2.488143527507781894e+00
8.941372275352478249e-01 2.167605400085449219e+00 -2.492746210098266690e+00
9.625465154647827593e-01 2.264815330505371094e+00 -2.604537630081176669e+00
1.074172511696815491e+00 2.455251455307006836e+00 -2.823539173603057950e+00
1.465099892020225614e+00 2.493787050247192383e+00 -2.867855107784271329e+00
1.259578514099121138e+00 2.099297523498535156e+00 -2.414192152023315607e+00
1.253715756535530135e+00 2.046882867813110352e+00 -2.353915297985076815e+00
1.283045858144760132e+00 2.052873373031616211e+00 -2.360804378986358643e+00
1.300262564420699984e+00 2.039627552032470703e+00 -2.345571684837341131e+00
1.331528759002685636e+00 2.048505783081054688e+00 -2.355781650543212979e+00
1.403297275304794312e+00 2.118184566497802734e+00 -2.435912251472473145e+00
1.489190071821212769e+00 2.206207513809204102e+00 -2.537138640880584717e+00
1.560349449515342712e+00 2.269599199295043945e+00 -2.610039079189300448e+00
1.614391255378723189e+00 2.306273221969604492e+00 -2.652214205265045255e+00
1.655626702308654830e+00 2.323686599731445312e+00 -2.672239589691161932e+00
1.698394411802291781e+00 2.342612981796264648e+00 -2.694004929065704435e+00
1.716068533062934831e+00 2.326872587203979492e+00 -2.675903475284576505e+00
1.739323139190673828e+00 2.319097518920898438e+00 -2.666962146759033203e+00
1.754398423433303877e+00 2.300850391387939453e+00 -2.645977950096130460e+00
1.774627280235290483e+00 2.289841651916503906e+00 -2.633317899703979670e+00
1.786683958768844560e+00 2.268805027008056641e+00 -2.609125781059264959e+00
1.803127670288085849e+00 2.253909587860107422e+00 -2.591996026039123713e+00
1.818090558052062988e+00 2.237649917602539062e+00 -2.573297405242919833e+00
1.832118433713912919e+00 2.220749616622924805e+00 -2.553862059116363437e+00
1.846904882788658053e+00 2.205259561538696289e+00 -2.536048495769500644e+00
1.868871247768402188e+00 2.198672056198120117e+00 -2.528472864627838046e+00
1.894946247339248657e+00 2.197039127349853516e+00 -2.526594996452331543e+00
1.918916165828704834e+00 2.193047046661376953e+00 -2.522004103660583585e+00
1.944569829106330916e+00 2.191064596176147461e+00 -2.519724285602569669e+00
1.961328220367431596e+00 2.179253578186035156e+00 -2.506141614913940607e+00
1.975691694021225020e+00 2.165141582489013672e+00 -2.489912819862365900e+00
1.991967946290969849e+00 2.153478860855102539e+00 -2.476500689983367920e+00
2.005904316902160645e+00 2.139631271362304688e+00 -2.460575962066650302e+00
2.030319046974182307e+00 2.137177944183349609e+00 -2.457754635810851962e+00
2.051868912577629267e+00 2.131811857223510742e+00 -2.451583635807037531e+00
2.058001899719238192e+00 2.110771179199218750e+00 -2.427386856079101651e+00
2.072806739807128817e+00 2.099044799804687500e+00 -2.413901519775390803e+00
2.078407287597656250e+00 2.078407287597656250e+00 -2.390168380737304865e+00
2.097813364863395869e+00 2.071914434432983398e+00 -2.382701599597930819e+00
2.094069850444793879e+00 2.042994976043701172e+00 -2.349444222450256525e+00
2.105967649817466647e+00 2.029848337173461914e+00 -2.334325587749481290e+00
2.485200226306915339e-01 2.209066867828369141e+00 -2.568040233850479304e+00
2.569915056228637695e-01 2.055932044982910156e+00 -2.390021002292633145e+00
3.213533520698547141e-01 2.337115287780761719e+00 -2.716896522045135320e+00
5.052160084247588889e-01 2.245404481887817383e+00 -2.610282710194587796e+00
4.485191121697426064e-01 1.888501524925231934e+00 -2.195383022725581945e+00
4.703741669654846191e-01 1.881496667861938477e+00 -2.187239876389503568e+00
5.112693786621094194e-01 1.947692871093750000e+00 -2.264192962646484286e+00
8.822553455829620361e-01 2.352680921554565430e+00 -2.734991571307182401e+00
8.326858282089233398e-01 2.148866653442382812e+00 -2.498057484626770020e+00
8.577375411987304688e-01 2.144343852996826172e+00 -2.492799729108810425e+00
8.928855568170547263e-01 2.164571046829223633e+00 -2.516313841938972562e+00
9.267734110355376753e-01 2.180643320083618164e+00 -2.534997859597206027e+00
1.003619849681854248e+00 2.293988227844238281e+00 -2.666761314868927091e+00
1.268056869506835938e+00 2.113428115844726562e+00 -2.456860184669494629e+00
1.252258655428886369e+00 2.044503927230834961e+00 -2.376735815405845553e+00
1.280013769865036011e+00 2.048022031784057617e+00 -2.380825611948966802e+00
1.303367605805397123e+00 2.044498205184936523e+00 -2.376729163527488531e+00
1.333497214317321822e+00 2.051534175872802734e+00 -2.384908479452133356e+00
1.371844232082366943e+00 2.070708274841308594e+00 -2.407198369503021240e+00
1.428061938285827726e+00 2.115647315979003906e+00 -2.459440004825592219e+00
1.472043409943580627e+00 2.141154050827026367e+00 -2.489091584086418063e+00
1.503418421745300382e+00 2.147740602493286133e+00 -2.496748450398444952e+00
1.549951449036598206e+00 2.175370454788208008e+00 -2.528868153691291809e+00
1.593206334114074751e+00 2.197525978088378906e+00 -2.554623949527740301e+00
1.638084879517555326e+00 2.221132040023803711e+00 -2.582065996527671992e+00
1.679688155651092529e+00 2.239584207534790039e+00 -2.603516641259193243e+00
1.714845103025436357e+00 2.248977184295654297e+00 -2.614435976743698209e+00
1.738637292385101230e+00 2.243402957916259766e+00 -2.607955938577652066e+00
1.757709476351738020e+00 2.232012033462524414e+00 -2.594713988900184454e+00
1.767158126831054776e+00 2.208947658538818359e+00 -2.567901653051376520e+00
1.783447131514549255e+00 2.195011854171752930e+00 -2.551701280474662603e+00
1.800715434551239058e+00 2.182685375213623047e+00 -2.537371748685836703e+00
1.815982127189636142e+00 2.168336868286132812e+00 -2.520691609382629483e+00
1.833745932579040616e+00 2.157348155975341797e+00 -2.507917231321334928e+00
1.851765561103820845e+00 2.146974563598632812e+00 -2.495857930183410733e+00
1.875332474708557129e+00 2.143237113952636719e+00 -2.491513144969940363e+00
1.897663119435310408e+00 2.138211965560913086e+00 -2.485671409964561374e+00
1.919954824447631880e+00 2.133283138275146484e+00 -2.479941648244857966e+00
1.937433651089668363e+00 2.123214960098266602e+00 -2.468237391114235013e+00
1.942958849668502852e+00 2.100496053695678711e+00 -2.441826662421226590e+00
1.964102536439895630e+00 2.095042705535888672e+00 -2.435487145185470492e+00
1.977151441574096724e+00 2.081212043762207031e+00 -2.419409000873565585e+00
2.009667930006981074e+00 2.087966680526733398e+00 -2.427261266112327398e+00
2.021805149316787897e+00 2.073646306991577148e+00 -2.410613831877708613e+00
2.025413942337036310e+00 2.051052093505859375e+00 -2.384348058700561435e+00
2.025968551635742188e+00 2.025968551635742188e+00 -2.355188441276550471e+00
2.034873211383819491e+00 2.009751319885253906e+00 -2.336335909366607844e+00
2.045831626653671353e+00 1.995933294296264648e+00 -2.320272454619407565e+00
2.068313384056091220e+00 1.993555068969726562e+00 -2.317507767677307040e+00
2.515104711055755615e-01 2.235648632049560547e+00 -2.626887142658233643e+00
2.585891485214233398e-01 2.068713188171386719e+00 -2.430737996101379306e+00
3.239617943763732910e-01 2.356085777282714844e+00 -2.768400788307189941e+00
5.033129811286926047e-01 2.236946582794189453e+00 -2.628412234783172430e+00
4.516993373632430808e-01 1.901891946792602539e+00 -2.234723037481308072e+00
4.706280231475830078e-01 1.882512092590332031e+00 -2.211951708793640226e+00
5.162504151463508384e-01 1.966668248176574707e+00 -2.310835191607475192e+00
9.271139502525329590e-01 2.472303867340087891e+00 -2.904957044124603094e+00
8.396674364805221114e-01 2.166883707046508789e+00 -2.546088355779647650e+00
8.589916229248046875e-01 2.147479057312011719e+00 -2.523287892341613770e+00
8.871329069137573464e-01 2.150625228881835938e+00 -2.526984643936157404e+00
9.158098340034485085e-01 2.154846668243408203e+00 -2.531944835186004550e+00
9.608000069856643677e-01 2.196114301681518555e+00 -2.580434304475784479e+00
1.088673448562622159e+00 2.419274330139160156e+00 -2.842647337913513095e+00
1.276351976394653365e+00 2.127253293991088867e+00 -2.499522620439529330e+00
1.253044596314430326e+00 2.045787096023559570e+00 -2.403799837827682584e+00
1.278677582740783691e+00 2.045884132385253906e+00 -2.403913855552673340e+00
1.298981729149818465e+00 2.037618398666381836e+00 -2.394201618432998835e+00
1.324893164634704634e+00 2.038297176361083984e+00 -2.394999182224273770e+00
1.358154189586639360e+00 2.050044059753417969e+00 -2.408801770210266202e+00
1.403951185941696211e+00 2.079927682876586914e+00 -2.443915027379989446e+00
1.443937942385673523e+00 2.100273370742797852e+00 -2.467821210622787476e+00
1.462015438079834029e+00 2.088593482971191406e+00 -2.454097342491150080e+00
1.500143426656723067e+00 2.105464458465576172e+00 -2.473920738697052091e+00
1.540860599279403775e+00 2.125324964523315430e+00 -2.497256833314895452e+00
1.567401313781738192e+00 2.125289916992187500e+00 -2.497215652465820224e+00
1.613970279693603516e+00 2.151960372924804688e+00 -2.528553438186645685e+00
1.658019337058067366e+00 2.174451589584350586e+00 -2.554980617761612116e+00
1.697566747665405273e+00 2.190408706665039062e+00 -2.573730230331420898e+00
1.717927086353302046e+00 2.181494712829589844e+00 -2.563256287574767978e+00
1.732707786560058638e+00 2.165884733200073242e+00 -2.544914561510085882e+00
1.754635885357856750e+00 2.159551858901977539e+00 -2.537473434209823520e+00
1.764239859580993608e+00 2.138472557067871094e+00 -2.512705254554748358e+00
1.788925689458847001e+00 2.136030673980712891e+00 -2.509836041927337558e+00
1.803624594211578280e+00 2.121911287307739258e+00 -2.493245762586593806e+00
1.821331635117530823e+00 2.111688852310180664e+00 -2.481234401464462280e+00
1.844172298908233643e+00 2.107625484466552734e+00 -2.476459944248199374e+00
1.860001906752586365e+00 2.095776796340942383e+00 -2.462537735700607300e+00
1.876091909408569292e+00 2.084546566009521484e+00 -2.449342215061187655e+00
1.891949671506881758e+00 2.073369503021240234e+00 -2.436209166049957187e+00
1.904619783163070679e+00 2.059048414230346680e+00 -2.419381886720657349e+00
1.915431842207908630e+00 2.043127298355102539e+00 -2.400674575567245395e+00
1.933842599391937256e+00 2.035623788833618164e+00 -2.391857951879501343e+00
1.955552914738655002e+00 2.031743288040161133e+00 -2.387298363447189153e+00
1.970393782854080289e+00 2.020916700363159180e+00 -2.374577122926711858e+00
1.965740445256233260e+00 1.990623235702514648e+00 -2.338982301950454534e+00
1.967187881469726562e+00 1.967187881469726562e+00 -2.311445760726928533e+00
1.984901846945285708e+00 1.960396885871887207e+00 -2.303466340899467557e+00
1.987937986850738525e+00 1.939451694488525391e+00 -2.278855741024017334e+00
2.023986849188804449e+00 1.950830698013305664e+00 -2.292226070165634066e+00
1.871963381767272894e-01 2.495951175689697266e+00 -2.963942021131515503e+00
2.163765311241149791e-01 2.472874641418457031e+00 -2.936538636684417725e+00
2.482075721025466808e-01 2.206289529800415039e+00 -2.619968816637992859e+00
2.551293075084686279e-01 2.041034460067749023e+00 -2.423728421330451965e+00
3.152389466762542947e-01 2.292646884918212891e+00 -2.722518175840377808e+00
3.748066663742065652e-01 2.498711109161376953e+00 -2.967219442129135132e+00
4.067408353090286033e-01 2.503020524978637695e+00 -2.972336873412132263e+00
5.002017974853515403e-01 2.501008987426757812e+00 -2.969948172569274902e+00
5.060187399387359175e-01 2.248972177505493164e+00 -2.670654460787773132e+00
4.531847372651099937e-01 1.908146262168884277e+00 -2.265923686325550079e+00
4.688153266906738281e-01 1.875261306762695312e+00 -2.226872801780700684e+00
5.205675825476646645e-01 1.983114600181579590e+00 -2.354948587715625763e+00
9.207214415073394775e-01 2.455257177352905273e+00 -2.915617898106575012e+00
8.490599811077117476e-01 2.191122531890869141e+00 -2.601958006620407104e+00
8.563819885253906028e-01 2.140954971313476562e+00 -2.542384028434753418e+00
8.836305499076843040e-01 2.142134666442871094e+00 -2.543784916400909424e+00
9.138264417648315208e-01 2.150179862976074219e+00 -2.553338587284088135e+00
9.408526420593261719e-01 2.150520324707031250e+00 -2.553742885589599609e+00
1.017071020603179887e+00 2.260157823562622070e+00 -2.683937415480613708e+00
1.465329748392105058e+00 2.494178295135498047e+00 -2.961836725473403931e+00
1.292116498947143644e+00 2.153527498245239258e+00 -2.557313904166221619e+00
1.260736215114593550e+00 2.058344841003417969e+00 -2.444284498691558838e+00
1.286586821079254150e+00 2.058538913726806641e+00 -2.444514960050582886e+00
1.304012811183929532e+00 2.045510292053222656e+00 -2.429043471813201904e+00
1.324612820148467929e+00 2.037865877151489258e+00 -2.419965729117393494e+00
1.357743671536445706e+00 2.049424409866333008e+00 -2.433691486716270447e+00
1.392606890201568692e+00 2.063121318817138672e+00 -2.449956566095352173e+00
1.421194553375244141e+00 2.067192077636718750e+00 -2.454790592193603516e+00
1.450870990753173828e+00 2.072672843933105469e+00 -2.461299002170562744e+00
1.485864731669426009e+00 2.085424184799194336e+00 -2.476441219449043274e+00
1.522185337543487504e+00 2.099565982818603516e+00 -2.493234604597091675e+00
1.547897487878799438e+00 2.098844051361083984e+00 -2.492377310991287231e+00
1.584283590316772461e+00 2.112378120422363281e+00 -2.508449018001556396e+00
1.620625549554824740e+00 2.125410556793212891e+00 -2.523925036191940308e+00
1.656341916322708219e+00 2.137215375900268555e+00 -2.537943258881568909e+00
1.687069988250732511e+00 2.142311096191406250e+00 -2.543994426727294922e+00
1.707769775390624911e+00 2.134712219238281250e+00 -2.534970760345458984e+00
1.724883377552032471e+00 2.122933387756347656e+00 -2.520983397960662842e+00
1.743225324153900191e+00 2.113000392913818359e+00 -2.509187966585159302e+00
1.757611769437789961e+00 2.098640918731689453e+00 -2.492136090993881226e+00
1.774632656574249179e+00 2.087803125381469727e+00 -2.479266211390495300e+00
1.800256204605102495e+00 2.087253570556640625e+00 -2.478613615036010742e+00
1.812843769788742065e+00 2.071821451187133789e+00 -2.460287973284721375e+00
1.837254014611244157e+00 2.070145368576049805e+00 -2.458297625184059143e+00
1.855818486213684171e+00 2.062020540237426758e+00 -2.448649391531944275e+00
1.865792581439018161e+00 2.044704198837280273e+00 -2.428086236119270325e+00
1.872980415821075439e+00 2.024843692779541016e+00 -2.404501885175704956e+00
1.878887191414833069e+00 2.004146337509155273e+00 -2.379923775792121887e+00
1.899495363235473633e+00 1.999468803405761719e+00 -2.374369204044342041e+00
1.908467036485671953e+00 1.982822895050048828e+00 -2.354602187871932983e+00
1.919399794936180070e+00 1.968615174293518066e+00 -2.337730519473552704e+00
1.924369218945503279e+00 1.948728322982788086e+00 -2.314114883542060852e+00
1.932137250900268555e+00 1.932137250900268555e+00 -2.294412985444068909e+00
1.946487691998481706e+00 1.922456979751586914e+00 -2.282917663455009460e+00
1.954868492484092668e+00 1.907188773155212402e+00 -2.264786668121814728e+00
1.954824577271938368e+00 1.884168267250061035e+00 -2.237449817359447479e+00
9.307854473590851385e-02 2.482094526290893555e+00 -2.978513431549072443e+00
1.238885641098022433e-01 2.477771282196044922e+00 -2.973325538635253729e+00
1.545621007680892944e-01 2.472993612289428711e+00 -2.967592334747314542e+00
1.861213266849517933e-01 2.481617689132690430e+00 -2.977941226959228693e+00
2.161381870508193859e-01 2.470150709152221680e+00 -2.964180850982665927e+00
2.457304954528808649e-01 2.457304954528808594e+00 -2.948765945434570490e+00
2.407041460275650135e-01 2.139592409133911133e+00 -2.567510890960693182e+00
2.533716559410095215e-01 2.026973247528076172e+00 -2.432367897033691495e+00
3.119528561830520741e-01 2.268748044967651367e+00 -2.722497653961181818e+00
3.682611107826233021e-01 2.455074071884155273e+00 -2.946088886260986417e+00
3.949619114398956188e-01 2.430534839630126953e+00 -2.916641807556152433e+00
4.311012804508209117e-01 2.463435888290405273e+00 -2.956123065948486506e+00
