2.354949563741683960e+00 2.511946201324462891e+00 -3.139932751655578891e-02
2.295716309547424228e+00 2.416543483734130859e+00 -3.020679354667663713e-02
2.266640475392341703e+00 2.354951143264770508e+00 -2.943688929080963065e-02
2.228407877683639349e+00 2.285546541213989258e+00 -2.856933176517486433e-02
2.108040323853492826e+00 2.134724378585815430e+00 -2.668405473232269426e-02
1.954635620117187500e+00 1.954635620117187500e+00 -2.443294525146484306e-02
1.790283469855785459e+00 1.768181204795837402e+00 -2.210226505994796614e-02
1.637890788912773177e+00 1.597942233085632324e+00 -1.997427791357040544e-02
1.556818060576915741e+00 1.500547528266906738e+00 -1.875684410333633423e-02
1.549199384450912431e+00 1.475427985191345215e+00 -1.844284981489181449e-02
1.584939286112785339e+00 1.491707563400268555e+00 -1.864634454250335693e-02
1.659756717085838273e+00 1.543959736824035645e+00 -1.929949671030044625e-02
1.785181546211242587e+00 1.641546249389648438e+00 -2.051932811737060616e-02
1.900483763217926114e+00 1.727712512016296387e+00 -2.159640640020370553e-02
2.032810191810130895e+00 1.827245116233825684e+00 -2.284056395292282174e-02
2.204538300633430481e+00 1.959589600563049316e+00 -2.449487000703811507e-02
2.371081951260566534e+00 2.084467649459838867e+00 -2.605584561824798515e-02
2.529432225227355779e+00 2.199506282806396484e+00 -2.749382853507995744e-02
2.724954164028167813e+00 2.344046592712402344e+00 -2.930058240890502999e-02
2.860912305116653620e+00 2.434818983078002930e+00 -3.043523728847503593e-02
2.941076800227165222e+00 2.476696252822875977e+00 -3.095870316028594832e-02
2.976124191284179599e+00 2.480103492736816406e+00 -3.100129365921020647e-02
3.001072674989700317e+00 2.475111484527587891e+00 -3.093889355659484863e-02
2.976226413249969394e+00 2.429572582244873047e+00 -3.036965727806091239e-02
2.996509435772895635e+00 2.421421766281127930e+00 -3.026777207851409981e-02
2.988641262054443359e+00 2.390913009643554688e+00 -2.988641262054443290e-02
3.072651407122612088e+00 2.433783292770385742e+00 -3.042229115962982039e-02
3.161646187305450439e+00 2.479722499847412109e+00 -3.099653124809265137e-02
3.275979739427566706e+00 2.544450283050537109e+00 -3.180562853813171525e-02
3.414825820922851474e+00 2.626789093017578125e+00 -3.283486366271972517e-02
3.565561518073081970e+00 2.716618299484252930e+00 -3.395772874355316301e-02
3.724022310972213923e+00 2.810582876205444336e+00 -3.513228595256805142e-02
3.878452607989311129e+00 2.899777650833129883e+00 -3.624722063541412076e-02
4.047991883754730402e+00 2.998512506484985352e+00 -3.748140633106231828e-02
4.168184429407119751e+00 3.059217929840087891e+00 -3.824022412300109863e-02
4.300397813320159912e+00 3.127562046051025391e+00 -3.909452557563782016e-02
4.474842184782028554e+00 3.225111484527587891e+00 -4.031389355659485002e-02
4.691537952423095348e+00 3.351098537445068359e+00 -4.188873171806335727e-02
4.929472458362579523e+00 3.489892005920410156e+00 -4.362365007400512834e-02
5.112740403413772228e+00 3.587888002395629883e+00 -4.484860002994537492e-02
5.233220219612121582e+00 3.640501022338867188e+00 -4.550626277923584123e-02
5.350251865386963068e+00 3.689828872680664062e+00 -4.612286090850829801e-02
5.462048560380935669e+00 3.734734058380126953e+00 -4.668417572975158691e-02
5.738314580917358576e+00 3.890382766723632812e+00 -4.862978458404541154e-02
5.975970846414566218e+00 4.017459392547607422e+00 -5.021824240684509555e-02
6.091336011886596680e+00 4.060890674591064453e+00 -5.076113343238830566e-02
6.104752570390701294e+00 4.036200046539306641e+00 -5.045250058174133301e-02
6.042522138357162120e+00 3.962309598922729492e+00 -4.952886998653412143e-02
6.001213485002518055e+00 3.903228282928466797e+00 -4.879035353660583774e-02
5.962824320793151500e+00 3.846983432769775391e+00 -4.808729290962219377e-02
5.796818435192108154e+00 3.709963798522949219e+00 -4.637454748153686801e-02
5.606971371173858465e+00 3.559981822967529297e+00 -4.449977278709411899e-02
5.612668401002883556e+00 3.535539150238037109e+00 -4.419423937797546664e-02
5.551557922363281605e+00 3.469723701477050781e+00 -4.337154626846313754e-02
5.509796100854873480e+00 3.416927814483642578e+00 -4.271159768104552945e-02
5.573092639446258545e+00 3.429595470428466797e+00 -4.286994338035583774e-02
5.616713342070579706e+00 3.430053949356079102e+00 -4.287567436695098599e-02
5.749110567569732488e+00 3.484309434890747070e+00 -4.355386793613433977e-02
5.893313705921173096e+00 3.544850349426269531e+00 -4.431062936782836914e-02
5.891029244661330821e+00 3.517032384872436523e+00 -4.396290481090545793e-02
6.034502372145652771e+00 3.576001405715942383e+00 -4.470001757144927840e-02
6.268634891510009410e+00 3.687432289123535156e+00 -4.609290361404418807e-02
6.346687245368957342e+00 3.706094741821289062e+00 -4.632618427276611467e-02
6.386566740274429499e+00 3.702357530593872070e+00 -4.627946913242340227e-02
6.378299126029014943e+00 3.670963525772094727e+00 -4.588704407215118269e-02
6.287841260433197021e+00 3.593052148818969727e+00 -4.491315186023712297e-02
6.188709264993667247e+00 3.511324405670166016e+00 -4.389155507087707381e-02
6.161607658863067272e+00 3.471328258514404297e+00 -4.339160323143005649e-02
6.091515302658081055e+00 3.407840728759765625e+00 -4.259800910949707031e-02
5.952613592147827148e+00 3.307007551193237305e+00 -4.133759438991546631e-02
5.751014277338981628e+00 3.172973394393920898e+00 -3.966216742992401123e-02
5.602085459232330145e+00 3.069635868072509766e+00 -3.837044835090637485e-02
5.532083246111869634e+00 3.010657548904418945e+00 -3.763321936130523820e-02
5.377831029891967596e+00 2.906935691833496094e+00 -3.633669614791869978e-02
4.984174999594688238e+00 2.676067113876342773e+00 -3.345083892345428189e-02
4.387178421020507812e+00 2.339828491210937500e+00 -2.924785614013671736e-02
3.672031152248382391e+00 1.945446968078613281e+00 -2.431808710098266532e-02
3.414330220222473233e+00 1.797015905380249023e+00 -2.246269881725311210e-02
3.416136543452739538e+00 1.786215186119079590e+00 -2.232768982648849349e-02
3.501838910579681219e+00 1.819137096405029297e+00 -2.273921370506286690e-02
3.583678677678108215e+00 1.849640607833862305e+00 -2.312050759792327881e-02
3.584767735004425138e+00 1.838342428207397461e+00 -2.297928035259246687e-02
3.720162552595138727e+00 4.313231945037841797e+00 -1.078307986259460505e-01
3.526340305805206299e+00 4.030103206634521484e+00 -1.007525801658630399e-01
2.942108044028282077e+00 3.315051317214965820e+00 -8.287628293037414828e-02
2.584915637969970703e+00 2.872128486633300781e+00 -7.180321216583251953e-02
2.470680972933769315e+00 2.707595586776733398e+00 -6.768988966941832941e-02
2.391857439279556186e+00 2.585791826248168945e+00 -6.464479565620422086e-02
2.331678271293640137e+00 2.487123489379882812e+00 -6.217808723449706754e-02
2.275208079814910800e+00 2.394955873489379883e+00 -5.987389683723449985e-02
2.241349259018897921e+00 2.328674554824829102e+00 -5.821686387062072893e-02
2.195721709728240878e+00 2.252022266387939453e+00 -5.630055665969848494e-02
2.061434832215309321e+00 2.087528944015502930e+00 -5.218822360038757185e-02
1.914124131202697754e+00 1.914124131202697754e+00 -4.785310328006744246e-02
1.731426697969436601e+00 1.710051059722900391e+00 -4.275127649307251115e-02
1.584977838397026106e+00 1.546319842338562012e+00 -3.865799605846405307e-02
1.520342338085174605e+00 1.465390205383300781e+00 -3.663475513458251676e-02
1.518681371212005526e+00 1.446363210678100586e+00 -3.615908026695251187e-02
1.558177702128887177e+00 1.466520190238952637e+00 -3.666300475597381731e-02
1.629486408829688981e+00 1.515801310539245605e+00 -3.789503276348114152e-02
1.744121803343296140e+00 1.603790163993835449e+00 -4.009475409984588484e-02
1.862062215805053711e+00 1.692783832550048828e+00 -4.231959581375122070e-02
1.990100476145744368e+00 1.788854360580444336e+00 -4.472135901451110979e-02
2.157991245388984680e+00 1.918214440345764160e+00 -4.795536100864410123e-02
2.299993625283241361e+00 2.021972417831420898e+00 -5.054931044578551969e-02
2.454920697212219061e+00 2.134713649749755859e+00 -5.336784124374389926e-02
2.634830912947654813e+00 2.266521215438842773e+00 -5.666303038597107072e-02
2.784700560569763006e+00 2.369957923889160156e+00 -5.924894809722900529e-02
2.881946191191673279e+00 2.426902055740356445e+00 -6.067255139350891113e-02
2.919708824157714933e+00 2.433090686798095703e+00 -6.082726716995238980e-02
2.916552171111106873e+00 2.405403852462768555e+00 -6.013509631156921387e-02
2.886222892999648959e+00 2.356100320816040039e+00 -5.890250802040099959e-02
2.874226507544517695e+00 2.322607278823852539e+00 -5.806518197059631209e-02
2.909918725490570068e+00 2.327934980392456055e+00 -5.819837450981139859e-02
3.005621549487114130e+00 2.380690336227416992e+00 -5.951725840568542619e-02
3.099883389472961603e+00 2.431281089782714844e+00 -6.078202724456786832e-02
3.221052843332290472e+00 2.501788616180419922e+00 -6.254471540451049527e-02
3.375355052947997869e+00 2.596426963806152344e+00 -6.491067409515380304e-02
3.520076394081115723e+00 2.681962966918945312e+00 -6.704907417297363559e-02
3.670054113864898770e+00 2.769852161407470703e+00 -6.924630403518676480e-02
3.780266687273979187e+00 2.826367616653442383e+00 -7.065919041633605957e-02
3.918978059291839511e+00 2.902946710586547852e+00 -7.257366776466370184e-02
4.031887456774711609e+00 2.959183454513549805e+00 -7.397958636283874512e-02
4.151369631290435791e+00 3.019177913665771484e+00 -7.547944784164428711e-02
4.339465212821960627e+00 3.127542495727539062e+00 -7.818856239318847101e-02
4.553499078750609996e+00 3.252499341964721680e+00 -8.131248354911804754e-02
4.760805106163024547e+00 3.370481491088867188e+00 -8.426203727722167414e-02
4.933473175764083507e+00 3.462086439132690430e+00 -8.655216097831726352e-02
5.085124239325523376e+00 3.537477731704711914e+00 -8.843694329261779508e-02
5.224844598770141957e+00 3.603341102600097656e+00 -9.008352756500244418e-02
5.336995044350624440e+00 3.649227380752563477e+00 -9.123068451881408136e-02
5.591424512863159002e+00 3.790796279907226562e+00 -9.476990699768066129e-02
5.776217693090439198e+00 3.883171558380126953e+00 -9.707928895950317105e-02
5.890225768089294434e+00 3.926817178726196289e+00 -9.817042946815490723e-02
5.885722094774246571e+00 3.891386508941650391e+00 -9.728466272354126254e-02
5.829905861616134999e+00 3.822889089584350586e+00 -9.557222723960875910e-02
5.801392194628715693e+00 3.773263216018676758e+00 -9.433158040046692172e-02
5.806939029693603871e+00 3.746412277221679688e+00 -9.366030693054198941e-02
5.650383979082107544e+00 3.616245746612548828e+00 -9.040614366531371515e-02
5.430698311328887584e+00 3.448062419891357422e+00 -8.620156049728393277e-02
5.421197000145911993e+00 3.414927244186401367e+00 -8.537318110466003696e-02
5.403109741210937678e+00 3.376943588256835938e+00 -8.442358970642090121e-02
5.453803271055221558e+00 3.382203578948974609e+00 -8.455508947372436523e-02
5.575403273105621338e+00 3.431017398834228516e+00 -8.577543497085571289e-02
5.659676837921142400e+00 3.456291198730468750e+00 -8.640727996826172430e-02
5.828148257732391535e+00 3.532211065292358398e+00 -8.830527663230895719e-02
5.990166535973548534e+00 3.603107690811157227e+00 -9.007769227027892511e-02
6.057249963283538818e+00 3.616268634796142578e+00 -9.040671586990356445e-02
6.264990359544754028e+00 3.712586879730224609e+00 -9.281467199325561801e-02
6.489099264144897461e+00 3.817117214202880859e+00 -9.542793035507202148e-02
6.594158631563186823e+00 3.850603580474853516e+00 -9.626508951187133512e-02
6.638656765222549438e+00 3.848496675491333008e+00 -9.621241688728332520e-02
6.632362535595893505e+00 3.817187070846557617e+00 -9.542967677116394321e-02
6.581291735172271729e+00 3.760738134384155273e+00 -9.401845335960387628e-02
6.485411399602890370e+00 3.679666042327880859e+00 -9.199165105819702426e-02
6.438582807779312134e+00 3.627370595932006836e+00 -9.068426489830017090e-02
6.368797230720519842e+00 3.562963485717773438e+00 -8.907408714294433316e-02
6.236345815658569158e+00 3.464636564254760742e+00 -8.661591410636901300e-02
6.060545578598976135e+00 3.343749284744262695e+00 -8.359373211860657293e-02
5.885882848501205800e+00 3.225141286849975586e+00 -8.062853217124939242e-02
5.770705676078796031e+00 3.140520095825195312e+00 -7.851300239562988836e-02
5.566994154453277943e+00 3.009186029434204102e+00 -7.522965073585510809e-02
5.068091106414795100e+00 2.721122741699218750e+00 -6.802806854248047430e-02
4.371491521596908569e+00 2.331462144851684570e+00 -5.828655362129211287e-02
3.716613920032977969e+00 1.969066977500915527e+00 -4.922667443752289096e-02
3.433293282985687256e+00 1.806996464729309082e+00 -4.517491161823272705e-02
3.396589784324169248e+00 1.775994658470153809e+00 -4.439986646175384660e-02
3.440643814206123530e+00 1.787347435951232910e+00 -4.468368589878082137e-02
3.509702399373054504e+00 1.811459302902221680e+00 -4.528648257255554060e-02
3.560597437620162786e+00 1.825947403907775879e+00 -4.564868509769439558e-02
3.662758845090865911e+00 4.246676921844482422e+00 -1.592503845691680964e-01
3.457442909479141235e+00 3.951363325119018555e+00 -1.481761246919632014e-01
2.865351206064224332e+00 3.228564739227294922e+00 -1.210711777210235623e-01
2.532509136199950994e+00 2.813899040222167969e+00 -1.055212140083312961e-01
2.423631453514099032e+00 2.656034469604492188e+00 -9.960129261016845148e-02
2.348047286272048950e+00 2.538429498672485352e+00 -9.519110620021820068e-02
2.293804585933685303e+00 2.446724891662597656e+00 -9.175218343734740933e-02
2.237992703914642334e+00 2.355781793594360352e+00 -8.834181725978851318e-02
2.205154860019683749e+00 2.291069984436035156e+00 -8.591512441635132391e-02
2.140264409780502142e+00 2.195142984390258789e+00 -8.231786191463470737e-02
2.010648426413536249e+00 2.036099672317504883e+00 -7.635373771190642755e-02
1.868849515914916992e+00 1.868849515914916992e+00 -7.008185684680938443e-02
1.672642587125301450e+00 1.651992678642272949e+00 -6.194972544908523837e-02
1.521701261401176453e+00 1.484586596488952637e+00 -5.567199736833572388e-02
1.473925864696502774e+00 1.420651435852050781e+00 -5.327442884445190291e-02
1.472501367330551147e+00 1.402382254600524902e+00 -5.258933454751968384e-02
1.518603585660457611e+00 1.429273962974548340e+00 -5.359777361154556552e-02
1.591553500294685453e+00 1.480514883995056152e+00 -5.551930814981460849e-02
1.683217790722846940e+00 1.547786474227905273e+00 -5.804199278354645053e-02
1.796142792701721280e+00 1.632857084274291992e+00 -6.123214066028594832e-02
1.931856012344360440e+00 1.736499786376953125e+00 -6.511874198913573941e-02
2.092571899294853210e+00 1.860063910484313965e+00 -6.975239664316176813e-02
2.254714019596576691e+00 1.982166171073913574e+00 -7.433123141527175903e-02
2.389816057682037531e+00 2.078100919723510742e+00 -7.792878448963165561e-02
2.530251467227935702e+00 2.176560401916503906e+00 -8.162101507186889093e-02
2.660927736759185702e+00 2.264619350433349609e+00 -8.492322564125061313e-02
2.769245773553848267e+00 2.331996440887451172e+00 -8.744986653327942172e-02
2.826631164550781339e+00 2.355525970458984375e+00 -8.833222389221191684e-02
2.820918467640876948e+00 2.326530694961547852e+00 -8.724490106105804721e-02
2.813978248834609897e+00 2.297125101089477539e+00 -8.614219129085540216e-02
2.810581308603286921e+00 2.271176815032958984e+00 -8.516913056373595636e-02
2.854141891002655029e+00 2.283313512802124023e+00 -8.562425673007964533e-02
2.960267853736877619e+00 2.344766616821289062e+00 -8.792874813079834539e-02
3.038188683986663641e+00 2.382893085479736328e+00 -8.935849070549010953e-02
3.179027947783469976e+00 2.469147920608520508e+00 -9.259304702281952182e-02
3.352420735359191717e+00 2.578785181045532227e+00 -9.670444428920746405e-02
3.531502202153205872e+00 2.690668344497680664e+00 -1.009000629186630194e-01
3.688520318269729703e+00 2.783788919448852539e+00 -1.043920844793319730e-01
3.778122505545616239e+00 2.824764490127563477e+00 -1.059286683797836248e-01
3.908160817623138605e+00 2.894933938980102539e+00 -1.085600227117538424e-01
4.041996967792511164e+00 2.966603279113769531e+00 -1.112476229667663519e-01
4.178129047155380249e+00 3.038639307022094727e+00 -1.139489740133285550e-01
4.377952480316162465e+00 3.155281066894531250e+00 -1.183230400085449191e-01
4.578918218612670898e+00 3.270655870437622070e+00 -1.226495951414108276e-01
4.755439746379852117e+00 3.366683006286621094e+00 -1.262506127357482799e-01
4.925714385509491144e+00 3.456641674041748047e+00 -1.296240627765655462e-01
5.078123703598976135e+00 3.532607793807983398e+00 -1.324727922677993719e-01
5.193046128749847057e+00 3.581411123275756836e+00 -1.343029171228408702e-01
5.293331390619277599e+00 3.619371891021728516e+00 -1.357264459133148138e-01
5.515808987617492498e+00 3.739531517028808594e+00 -1.402324318885803112e-01
5.668437084555625560e+00 3.810714006423950195e+00 -1.429017752408981434e-01
5.759072542190551758e+00 3.839381694793701172e+00 -1.439768135547637995e-01
5.744683939218520941e+00 3.798138141632080078e+00 -1.424301803112029974e-01
5.696979421377181829e+00 3.735724210739135742e+00 -1.400896579027176014e-01
5.689042228460311712e+00 3.700190067291259766e+00 -1.387571275234222301e-01
5.710755825042724609e+00 3.684358596801757812e+00 -1.381634473800659180e-01
5.576036497950553894e+00 3.568663358688354492e+00 -1.338248759508132990e-01
5.382926398515701649e+00 3.417731046676635742e+00 -1.281649142503738514e-01
5.412266919016838429e+00 3.409301996231079102e+00 -1.278488248586654719e-01
5.414267730712890803e+00 3.383917331695556641e+00 -1.268968999385833851e-01
5.490392911434173406e+00 3.404894828796386719e+00 -1.276835560798645075e-01
5.638457149267196655e+00 3.469819784164428711e+00 -1.301182419061660822e-01
5.771858149766922352e+00 3.524798870086669922e+00 -1.321799576282501332e-01
5.984045827388763783e+00 3.626694440841674805e+00 -1.360010415315628107e-01
6.126043269038200734e+00 3.684838056564331055e+00 -1.381814271211624090e-01
6.209951847791671753e+00 3.707433938980102539e+00 -1.390287727117538452e-01
6.447388485074043274e+00 3.820674657821655273e+00 -1.432752996683120672e-01
6.651371431350708185e+00 3.912571430206298828e+00 -1.467214286327362116e-01
6.798367416858672740e+00 3.969849586486816406e+00 -1.488693594932556097e-01
6.907775509357452215e+00 4.004507541656494141e+00 -1.501690328121185192e-01
6.905739215016365229e+00 3.974526166915893555e+00 -1.490447312593460027e-01
6.860803306102752686e+00 3.920459032058715820e+00 -1.470172137022018322e-01
6.774325731396674932e+00 3.843589067459106445e+00 -1.441345900297164861e-01
6.683328002691268921e+00 3.765255212783813477e+00 -1.411970704793930054e-01
6.533409190177917658e+00 3.655054092407226562e+00 -1.370645284652710072e-01
6.336148452758789240e+00 3.520082473754882812e+00 -1.320030927658080999e-01
6.122502312064170837e+00 3.377932310104370117e+00 -1.266724616289138794e-01
5.949712753295898438e+00 3.260116577148437500e+00 -1.222543716430664062e-01
5.830786344408989130e+00 3.173217058181762695e+00 -1.189956396818161038e-01
5.612431430816650746e+00 3.033746719360351562e+00 -1.137655019760131780e-01
5.015852078795433044e+00 2.693074941635131836e+00 -1.009903103113174438e-01
4.276251196861267090e+00 2.280667304992675781e+00 -8.552502393722534457e-02
3.634163059294223785e+00 1.925384402275085449e+00 -7.220191508531570435e-02
3.360758996009826749e+00 1.768820524215698242e+00 -6.633076965808867853e-02
3.297486694157123477e+00 1.724176049232482910e+00 -6.465660184621810358e-02
3.343584078550338567e+00 1.736926794052124023e+00 -6.513475477695465643e-02
3.421148344874382019e+00 1.765753984451293945e+00 -6.621577441692352850e-02
3.521264827251434415e+00 1.805776834487915039e+00 -6.771663129329681674e-02
3.670160841941833674e+00 4.317836284637451172e+00 -2.158918142318725641e-01
3.582797276973724188e+00 4.153967857360839844e+00 -2.076983928680419811e-01
3.373443365097045898e+00 3.855363845825195312e+00 -1.927681922912597712e-01
2.782766154408454984e+00 3.135511159896850586e+00 -1.567755579948425237e-01
2.483057999610900790e+00 2.758953332901000977e+00 -1.379476666450500377e-01
2.382953307032585233e+00 2.611455678939819336e+00 -1.305727839469909557e-01
2.320266437530517756e+00 2.508396148681640625e+00 -1.254198074340820424e-01
2.259490415453910828e+00 2.410123109817504883e+00 -1.205061554908752469e-01
2.197498774528503507e+00 2.313156604766845703e+00 -1.156578302383422796e-01
2.153661400079727173e+00 2.237570285797119141e+00 -1.118785142898559570e-01
2.087105190753936856e+00 2.140620708465576172e+00 -1.070310354232788114e-01
1.957292681932449430e+00 1.982068538665771484e+00 -9.910342693328857977e-02
1.803514838218688965e+00 1.803514838218688965e+00 -9.017574191093444269e-02
1.600162594020366758e+00 1.580407500267028809e+00 -7.902037501335143488e-02
1.456127154827117964e+00 1.420611858367919922e+00 -7.103059291839600164e-02
1.407978644967079251e+00 1.357087850570678711e+00 -6.785439252853393832e-02
1.413615381717681974e+00 1.346300363540649414e+00 -6.731501817703247625e-02
1.459734737873077393e+00 1.373867988586425781e+00 -6.869339942932128906e-02
1.532899507880210788e+00 1.425953030586242676e+00 -7.129765152931213934e-02
1.622028180956840426e+00 1.491520166397094727e+00 -7.457600831985473910e-02
1.745099830627441451e+00 1.586454391479492188e+00 -7.932271957397460382e-02
1.889202660322189420e+00 1.698159694671630859e+00 -8.490798473358154852e-02
2.045300513505935669e+00 1.818044900894165039e+00 -9.090224504470825750e-02
2.207131645083427518e+00 1.940335512161254883e+00 -9.701677560806273859e-02
2.345178234577178777e+00 2.039285421371459961e+00 -1.019642710685730036e-01
2.470502078533172607e+00 2.125163078308105469e+00 -1.062581539154052734e-01
2.597423785924911410e+00 2.210573434829711914e+00 -1.105286717414855902e-01
2.680390745401382446e+00 2.257171154022216797e+00 -1.128585577011108343e-01
2.702466773986816229e+00 2.252055644989013672e+00 -1.126027822494506808e-01
2.703913760185241877e+00 2.230031967163085938e+00 -1.115015983581542913e-01
2.743615072965622126e+00 2.239685773849487305e+00 -1.119842886924743708e-01
2.759408167004585355e+00 2.229824781417846680e+00 -1.114912390708923395e-01
2.812896370887756348e+00 2.250317096710205078e+00 -1.125158548355102567e-01
2.913663789629936218e+00 2.307852506637573242e+00 -1.153926253318786621e-01
3.054072135686874301e+00 2.395350694656372070e+00 -1.197675347328186063e-01
3.185968402028083624e+00 2.474538564682006836e+00 -1.237269282341003362e-01
3.403855967521667303e+00 2.618350744247436523e+00 -1.309175372123718151e-01
3.600592464208602905e+00 2.743308544158935547e+00 -1.371654272079467773e-01
3.746763336658477606e+00 2.827745914459228516e+00 -1.413872957229614369e-01
3.828006619215011508e+00 2.862061023712158203e+00 -1.431030511856078991e-01
3.973904657363891424e+00 2.943633079528808594e+00 -1.471816539764404241e-01
4.101443010568618597e+00 3.010233402252197266e+00 -1.505116701126098522e-01
4.217513680458068848e+00 3.067282676696777344e+00 -1.533641338348388783e-01
4.412597769498825429e+00 3.180250644683837891e+00 -1.590125322341919001e-01
4.576736593246460316e+00 3.269097566604614258e+00 -1.634548783302307018e-01
4.750585597753524958e+00 3.363246440887451172e+00 -1.681623220443725641e-01
4.938973331451416371e+00 3.465946197509765625e+00 -1.732973098754882757e-01
5.102463126182556152e+00 3.549539566040039062e+00 -1.774769783020019587e-01
5.230826711654662731e+00 3.607466697692871094e+00 -1.803733348846435491e-01
5.314829698204993846e+00 3.634071588516235352e+00 -1.817035794258117787e-01
5.463018435239791692e+00 3.703741312026977539e+00 -1.851870656013488714e-01
5.572178977727889837e+00 3.746002674102783203e+00 -1.873001337051391491e-01
5.647365331649780273e+00 3.764910221099853516e+00 -1.882455110549926813e-01
5.644037136435509083e+00 3.731594800949096680e+00 -1.865797400474548395e-01
5.622274380922317683e+00 3.686737298965454102e+00 -1.843368649482726995e-01
5.621249771118163707e+00 3.656097412109375000e+00 -1.828048706054687389e-01
5.680620598793029608e+00 3.664916515350341797e+00 -1.832458257675170787e-01
5.563386529684066772e+00 3.560567378997802734e+00 -1.780283689498901312e-01
5.409700208902359364e+00 3.434730291366577148e+00 -1.717365145683288630e-01
5.415384915471077143e+00 3.411266088485717773e+00 -1.705633044242858831e-01
5.455697250366211115e+00 3.409810781478881836e+00 -1.704905390739440973e-01
5.576759210228919628e+00 3.458455324172973633e+00 -1.729227662086486872e-01
5.726282924413681030e+00 3.523866415023803711e+00 -1.761933207511901800e-01
5.870810794830322088e+00 3.585227966308593750e+00 -1.792613983154296986e-01
6.061044967174529674e+00 3.673360586166381836e+00 -1.836680293083191029e-01
6.197946137189864757e+00 3.728087902069091797e+00 -1.864043951034545787e-01
6.374217343330383478e+00 3.805502891540527344e+00 -1.902751445770263783e-01
6.596435353159904480e+00 3.908998727798461914e+00 -1.954499363899230846e-01
6.807028913497925160e+00 4.004134654998779297e+00 -2.002067327499389704e-01
6.936966156959533336e+00 4.050783157348632812e+00 -2.025391578674316517e-01
7.019778048992156627e+00 4.069436550140380859e+00 -2.034718275070190319e-01
7.030314403772353948e+00 4.046224117279052734e+00 -2.023112058639526256e-01
6.943686962127685547e+00 3.967821121215820312e+00 -1.983910560607910212e-01
6.815516245365143000e+00 3.866959571838378906e+00 -1.933479785919189342e-01
6.710323905944823863e+00 3.780464172363281250e+00 -1.890232086181640736e-01
6.504029235243796947e+00 3.638617753982543945e+00 -1.819308876991271862e-01
6.266564226150512340e+00 3.481424570083618164e+00 -1.740712285041809138e-01
6.078169718384742737e+00 3.353472948074340820e+00 -1.676736474037170410e-01
5.894196569919586182e+00 3.229696750640869141e+00 -1.614848375320434570e-01
5.747789847850799383e+00 3.128048896789550781e+00 -1.564024448394775446e-01
5.526641583442687633e+00 2.987373828887939453e+00 -1.493686914443969616e-01
4.763870185613631847e+00 2.557782649993896484e+00 -1.278891324996948298e-01
4.122754186391830444e+00 2.198802232742309570e+00 -1.099401116371154785e-01
3.519708476960659027e+00 1.864746212959289551e+00 -9.323731064796447754e-02
3.281923997402190984e+00 1.727328419685363770e+00 -8.636642098426819403e-02
3.249704790115356623e+00 1.699192047119140625e+00 -8.495960235595703680e-02
3.328298786282539279e+00 1.728986382484436035e+00 -8.644931912422179621e-02
3.401586279273033142e+00 1.755657434463500977e+00 -8.778287172317504605e-02
3.488367354869842618e+00 1.788906335830688477e+00 -8.944531679153441828e-02
3.617681908607482733e+00 4.256096363067626953e+00 -2.660060226917266846e-01
3.527475839853286832e+00 4.089827060699462891e+00 -2.556141912937164307e-01
3.334852904081344604e+00 3.811260461807250977e+00 -2.382037788629531860e-01
2.702050557732582181e+00 3.044564008712768555e+00 -1.902852505445480347e-01
2.437705063819885165e+00 2.708561182022094727e+00 -1.692850738763809204e-01
2.345016160607337863e+00 2.569880723953247070e+00 -1.606175452470779419e-01
2.290069162845611572e+00 2.475750446319580078e+00 -1.547344028949737549e-01
2.243917956948280334e+00 2.393512487411499023e+00 -1.495945304632186890e-01
2.187526309490203769e+00 2.302659273147583008e+00 -1.439162045717239380e-01
2.126507741212845026e+00 2.209358692169189453e+00 -1.380849182605743408e-01
2.030504196882247925e+00 2.082568407058715820e+00 -1.301605254411697388e-01
1.892187386751174927e+00 1.916139125823974609e+00 -1.197586953639984131e-01
1.737421274185180664e+00 1.737421274185180664e+00 -1.085888296365737915e-01
1.528299736976623580e+00 1.509431838989257812e+00 -9.433948993682861328e-02
1.396194905042648315e+00 1.362141370773315430e+00 -8.513383567333221436e-02
1.358262275159358934e+00 1.309168457984924316e+00 -8.182302862405776978e-02
1.371240913867950439e+00 1.305943727493286133e+00 -8.162148296833038330e-02
1.424129128456115723e+00 1.340356826782226562e+00 -8.377230167388916016e-02
1.496540921926498457e+00 1.392131090164184570e+00 -8.700819313526153564e-02
1.589540889859199613e+00 1.461646795272827148e+00 -9.135292470455169678e-02
1.714192700386047319e+00 1.558357000350952148e+00 -9.739731252193450928e-02
1.848798151314258620e+00 1.661841034889221191e+00 -1.038650646805763245e-01
2.001399055123329163e+00 1.779021382331848145e+00 -1.111888363957405090e-01
2.162567061185836970e+00 1.901157855987548828e+00 -1.188223659992218018e-01
2.291966623067855924e+00 1.993014454841613770e+00 -1.245634034276008606e-01
2.424683940410614191e+00 2.085749626159667969e+00 -1.303593516349792480e-01
2.549416720867156982e+00 2.169716358184814453e+00 -1.356072723865509033e-01
2.631494715809822083e+00 2.215995550155639648e+00 -1.384997218847274780e-01
2.646896839141845703e+00 2.205747365951538086e+00 -1.378592103719711304e-01
2.629645279049873441e+00 2.168779611587524414e+00 -1.355487257242202759e-01
2.692208814620971502e+00 2.197721481323242188e+00 -1.373575925827026367e-01
2.706609338521957397e+00 2.187159061431884766e+00 -1.366974413394927979e-01
2.762660384178161621e+00 2.210128307342529297e+00 -1.381330192089080811e-01
2.866670829057693659e+00 2.270630359649658203e+00 -1.419143974781036377e-01
3.013942641019821345e+00 2.363876581192016602e+00 -1.477422863245010376e-01
3.167582491040229709e+00 2.460258245468139648e+00 -1.537661403417587280e-01
3.395793700218200595e+00 2.612149000167846680e+00 -1.632593125104904175e-01
3.594399064779281616e+00 2.738589763641357422e+00 -1.711618602275848389e-01
3.735683929920196711e+00 2.819384098052978516e+00 -1.762115061283111572e-01
3.820169386267662226e+00 2.856201410293579102e+00 -1.785125881433486938e-01
3.951565611362457098e+00 2.927085638046264648e+00 -1.829428523778915405e-01
4.089871045947075068e+00 3.001740217208862305e+00 -1.876087635755538940e-01
4.192864477634429932e+00 3.049355983734130859e+00 -1.905847489833831787e-01
4.364791703224182307e+00 3.145795822143554688e+00 -1.966122388839721680e-01
4.512570905685424627e+00 3.223264932632446289e+00 -2.014540582895278931e-01
4.680273184180260060e+00 3.313467741012573242e+00 -2.070917338132858276e-01
4.883245736360549927e+00 3.426839113235473633e+00 -2.141774445772171021e-01
5.087098002433776855e+00 3.538850784301757812e+00 -2.211781740188598633e-01
5.243220305442809703e+00 3.616014003753662109e+00 -2.260008752346038818e-01
5.315675613284111201e+00 3.634649991989135742e+00 -2.271656244993209839e-01
5.381883138418197987e+00 3.648734331130981445e+00 -2.280458956956863403e-01
5.439395001530646923e+00 3.656736135482788086e+00 -2.285460084676742554e-01
5.516448497772216797e+00 3.677632331848144531e+00 -2.298520207405090332e-01
5.529262790083885548e+00 3.655710935592651367e+00 -2.284819334745407104e-01
5.532970541715622304e+00 3.628177404403686523e+00 -2.267610877752304077e-01
5.577106484770775197e+00 3.627386331558227539e+00 -2.267116457223892212e-01
5.675921416282653453e+00 3.661884784698486328e+00 -2.288677990436553955e-01
5.543176084756851196e+00 3.547632694244384766e+00 -2.217270433902740479e-01
5.441083019971847179e+00 3.454655885696411133e+00 -2.159159928560256958e-01
5.443297380208969471e+00 3.428848743438720703e+00 -2.143030464649200439e-01
5.475459671020507457e+00 3.422162294387817383e+00 -2.138851433992385864e-01
5.583647015690803350e+00 3.462726831436157227e+00 -2.164204269647598267e-01
5.724542200565338135e+00 3.522795200347900391e+00 -2.201747000217437744e-01
5.871791505813598988e+00 3.585826873779296875e+00 -2.241141796112060547e-01
6.094780576229095637e+00 3.693806409835815430e+00 -2.308629006147384644e-01
6.230048611760139465e+00 3.747397661209106445e+00 -2.342123538255691528e-01
6.494553416967391968e+00 3.877345323562622070e+00 -2.423340827226638794e-01
6.719883486628532410e+00 3.982153177261352539e+00 -2.488845735788345337e-01
6.896916484832763317e+00 4.057009696960449219e+00 -2.535631060600280762e-01
7.001514643430709839e+00 4.088475704193115234e+00 -2.555297315120697021e-01
7.087592697143554332e+00 4.108749389648437500e+00 -2.567968368530273438e-01
7.095694184303283691e+00 4.083852767944335938e+00 -2.552407979965209961e-01
6.993734836578369141e+00 3.996419906616210938e+00 -2.497762441635131836e-01
6.842477095127105891e+00 3.882256507873535156e+00 -2.426410317420959473e-01
6.749094307422637939e+00 3.802306652069091797e+00 -2.376441657543182373e-01
6.545775032043456676e+00 3.661972045898437500e+00 -2.288732528686523438e-01
6.307021379470825195e+00 3.503900766372680664e+00 -2.189937978982925415e-01
6.110588818788528442e+00 3.371359348297119141e+00 -2.107099592685699463e-01
5.889465576410293224e+00 3.227104425430297852e+00 -2.016940265893936157e-01
5.677005663514137268e+00 3.089526891708374023e+00 -1.930954307317733765e-01
5.462027275562286732e+00 2.952447175979614258e+00 -1.845279484987258911e-01
4.604520747065544484e+00 2.472225904464721680e+00 -1.545141190290451050e-01
3.984635174274444580e+00 2.125138759613037109e+00 -1.328211724758148193e-01
3.440036234259605585e+00 1.822535753250122070e+00 -1.139084845781326294e-01
3.239077889919280917e+00 1.704777836799621582e+00 -1.065486147999763489e-01
3.215580037236213773e+00 1.681349039077758789e+00 -1.050843149423599243e-01
3.280672258138656705e+00 1.704245328903198242e+00 -1.065153330564498901e-01
3.360508158802986145e+00 1.734455823898315430e+00 -1.084034889936447144e-01
3.420428216457366943e+00 1.754065752029418945e+00 -1.096291095018386841e-01
3.632691073417663397e+00 4.337541580200195312e+00 -3.253156185150146706e-01
3.565153932571411222e+00 4.194298744201660156e+00 -3.145724058151245228e-01
3.478023254871368319e+00 4.032490730285644531e+00 -3.024368047714233176e-01
3.302133321762084961e+00 3.773866653442382812e+00 -2.830399990081787220e-01
2.642050892114639282e+00 2.976958751678466797e+00 -2.232719063758850098e-01
2.407448458671569647e+00 2.674942731857299805e+00 -2.006207048892974798e-01
2.321024632453918546e+00 2.543588638305664062e+00 -1.907691478729248158e-01
2.254857754707336515e+00 2.437684059143066406e+00 -1.828263044357299749e-01
2.205109521746635437e+00 2.352116823196411133e+00 -1.764087617397308294e-01
2.158281385898590088e+00 2.271875143051147461e+00 -1.703906357288360596e-01
2.079586169123649686e+00 2.160609006881713867e+00 -1.620456755161285289e-01
1.985821098089218140e+00 2.036739587783813477e+00 -1.527554690837860107e-01
1.844936558604240329e+00 1.868290185928344727e+00 -1.401217639446258600e-01
1.699673891067504883e+00 1.699673891067504883e+00 -1.274755418300628773e-01
1.478736336529254958e+00 1.460480332374572754e+00 -1.095360249280929593e-01
1.353256896138191223e+00 1.320250630378723145e+00 -9.901879727840423584e-02
1.324659630656242371e+00 1.276780366897583008e+00 -9.575852751731872559e-02
1.334496080875396729e+00 1.270948648452758789e+00 -9.532114863395690918e-02
1.382256895303726196e+00 1.300947666168212891e+00 -9.757107496261596680e-02
1.459766745567321777e+00 1.357922554016113281e+00 -1.018441915512084961e-01
1.550768905878066928e+00 1.425994396209716797e+00 -1.069495797157287570e-01
1.670799350738525479e+00 1.518908500671386719e+00 -1.139181375503540011e-01
1.808015276491641954e+00 1.625182271003723145e+00 -1.218886703252792386e-01
1.951193332672119141e+00 1.734394073486328125e+00 -1.300795555114745983e-01
2.100076082348823370e+00 1.846220731735229492e+00 -1.384665548801422008e-01
2.238758713006973267e+00 1.946746706962585449e+00 -1.460060030221939087e-01
2.377135205268859686e+00 2.044847488403320312e+00 -1.533635616302490290e-01
2.485236507654190241e+00 2.115094900131225586e+00 -1.586321175098419078e-01
2.577044397592544556e+00 2.170142650604248047e+00 -1.627606987953185980e-01
2.597292995452880948e+00 2.164410829544067383e+00 -1.623308122158050593e-01
2.574835520982742487e+00 2.123575687408447266e+00 -1.592681765556335505e-01
2.650041377544403165e+00 2.163299083709716797e+00 -1.622474312782287709e-01
2.665330463647842318e+00 2.153802394866943359e+00 -1.615351796150207575e-01
2.733375132083892822e+00 2.186700105667114258e+00 -1.640025079250335693e-01
2.861628118157386602e+00 2.266636133193969727e+00 -1.699977099895477184e-01
3.000758868455887018e+00 2.353536367416381836e+00 -1.765152275562286432e-01
3.193190035223961054e+00 2.480147600173950195e+00 -1.860110700130462591e-01
3.403106212615966797e+00 2.617774009704589844e+00 -1.963330507278442383e-01
3.601151973009109497e+00 2.743734836578369141e+00 -2.057801127433776800e-01
3.752671700716018854e+00 2.832205057144165039e+00 -2.124153792858123890e-01
3.826530182361602694e+00 2.860957145690917969e+00 -2.145717859268188588e-01
3.944073879718780429e+00 2.921536207199096680e+00 -2.191152155399322399e-01
4.088233500719070435e+00 3.000538349151611328e+00 -2.250403761863708496e-01
4.218220472335815430e+00 3.067796707153320312e+00 -2.300847530364990290e-01
4.375465151667595087e+00 3.153488397598266602e+00 -2.365116298198700062e-01
4.507844829559326527e+00 3.219889163970947266e+00 -2.414916872978210560e-01
4.688332000374794362e+00 3.319173097610473633e+00 -2.489379823207855114e-01
4.910311979055404841e+00 3.445832967758178711e+00 -2.584374725818633922e-01
5.110823258757591248e+00 3.555355310440063477e+00 -2.666516482830047496e-01
5.239427208900451660e+00 3.613398075103759766e+00 -2.710048556327819824e-01
5.309888452291488647e+00 3.630692958831787109e+00 -2.723019719123840332e-01
5.336782848834991100e+00 3.618157863616943359e+00 -2.713618397712707631e-01
5.400885587930678966e+00 3.630847454071044922e+00 -2.723135590553283913e-01
5.474215149879455566e+00 3.649476766586303711e+00 -2.737107574939727783e-01
5.483699956536293385e+00 3.625586748123168945e+00 -2.719190061092376931e-01
5.495644927024841309e+00 3.603701591491699219e+00 -2.702776193618774414e-01
5.576238816976546886e+00 3.626821994781494141e+00 -2.720116496086120716e-01
5.704974603652954279e+00 3.680628776550292969e+00 -2.760471582412719616e-01
5.538995936512947083e+00 3.544957399368286133e+00 -2.658718049526214711e-01
5.480044358968735096e+00 3.479393243789672852e+00 -2.609544932842254861e-01
5.497660961747169672e+00 3.463093519210815430e+00 -2.597320139408111350e-01
5.540112686157226740e+00 3.462570428848266602e+00 -2.596927821636200173e-01
5.643557390570640209e+00 3.499880552291870117e+00 -2.624910414218902810e-01
5.759345829486846924e+00 3.544212818145751953e+00 -2.658159613609313854e-01
5.890280953049659374e+00 3.597118139266967773e+00 -2.697838604450225608e-01
6.134223103523254395e+00 3.717710971832275391e+00 -2.788283228874206543e-01
6.297061452269554493e+00 3.787706136703491211e+00 -2.840779602527618297e-01
6.594530969858169556e+00 3.937033414840698242e+00 -2.952775061130523682e-01
6.803420752286911011e+00 4.031656742095947266e+00 -3.023742556571960560e-01
6.994864892959594904e+00 4.114626407623291016e+00 -3.085969805717468373e-01
7.112819892168045222e+00 4.153471469879150391e+00 -3.115103602409362571e-01
7.184821522235870006e+00 4.165113925933837891e+00 -3.123835444450378529e-01
7.170764154195785167e+00 4.127058506011962891e+00 -3.095293879508972390e-01
7.029428243637084961e+00 4.016816139221191406e+00 -3.012612104415893777e-01
6.838695180416107355e+00 3.880110740661621094e+00 -2.910083055496215931e-01
6.757035946846007946e+00 3.806780815124511719e+00 -2.855085611343383678e-01
6.601504424214363453e+00 3.693149328231811523e+00 -2.769861996173858532e-01
6.415355157852173029e+00 3.564086198806762695e+00 -2.673064649105071910e-01
6.223832473158836365e+00 3.433838605880737305e+00 -2.575378954410553201e-01
5.988439196348190663e+00 3.281336545944213867e+00 -2.461002409458160345e-01
5.767561474442482350e+00 3.138808965682983398e+00 -2.354106724262237660e-01
5.588052368164062145e+00 3.020568847656250000e+00 -2.265426635742187611e-01
4.608452406525612055e+00 2.474336862564086914e+00 -1.855752646923065075e-01
3.974181264638900757e+00 2.119563341140747070e+00 -1.589672505855560247e-01
3.507627372443676173e+00 1.858345627784729004e+00 -1.393759220838546864e-01
3.314532411098480402e+00 1.744490742683410645e+00 -1.308368057012558039e-01
3.253380864858627319e+00 1.701114177703857422e+00 -1.275835633277893066e-01
3.296752691268920898e+00 1.712598800659179688e+00 -1.284449100494384766e-01
3.381206586956977844e+00 1.745138883590698242e+00 -1.308854162693023626e-01
3.436094033718108953e+00 1.762099504470825195e+00 -1.321574628353118785e-01
3.581300574541091741e+00 4.276179790496826172e+00 -3.741657316684722789e-01
3.510566568374633878e+00 4.130078315734863281e+00 -3.613818526268005593e-01
3.401546600461005987e+00 3.943822145462036133e+00 -3.450844377279281838e-01
3.255112260580062866e+00 3.720128297805786133e+00 -3.255112260580063088e-01
2.586317011713981540e+00 2.914160013198852539e+00 -2.549890011548995861e-01
2.373912692070007324e+00 2.637680768966674805e+00 -2.307970672845840454e-01
2.295496934652328402e+00 2.515613079071044922e+00 -2.201161444187164362e-01
2.237478542327880682e+00 2.418895721435546875e+00 -2.116533756256103460e-01
2.183262705802917480e+00 2.328813552856445312e+00 -2.037711858749389759e-01
2.132460653781890869e+00 2.244695425033569336e+00 -1.964108496904373169e-01
2.048603901267051608e+00 2.128419637680053711e+00 -1.862367182970046942e-01
1.946405151486396701e+00 1.996312975883483887e+00 -1.746773853898048456e-01
1.798732018470764249e+00 1.821500778198242188e+00 -1.593813180923461803e-01
1.642557978630065918e+00 1.642557978630065918e+00 -1.437238231301307678e-01
1.425391906499862582e+00 1.407794475555419922e+00 -1.231820166110992459e-01
1.318736401200294450e+00 1.286572098731994629e+00 -1.125750586390495273e-01
1.302041222155094102e+00 1.254979491233825684e+00 -1.098107054829597501e-01
1.309914243221282915e+00 1.247537374496459961e+00 -1.091595202684402521e-01
1.351194195449352264e+00 1.271712183952331543e+00 -1.112748160958290100e-01
1.434491723775863647e+00 1.334410905838012695e+00 -1.167609542608261108e-01
1.518864476680755526e+00 1.396656990051269531e+00 -1.222074866294860784e-01
1.621973145008087203e+00 1.474521040916442871e+00 -1.290205910801887623e-01
1.744499817490577698e+00 1.568089723587036133e+00 -1.372078508138656616e-01
1.886004388332366943e+00 1.676448345184326172e+00 -1.466892302036285345e-01
2.045088425278663635e+00 1.797879934310913086e+00 -1.573144942522048950e-01
2.198919749259948819e+00 1.912104129791259766e+00 -1.673091113567352350e-01
2.348638281226158142e+00 2.020334005355834961e+00 -1.767792254686355591e-01
2.453290253877639771e+00 2.087906599044799805e+00 -1.826918274164199829e-01
2.521023318171501160e+00 2.122967004776000977e+00 -1.857596129179000799e-01
2.485377216339111239e+00 2.071147680282592773e+00 -1.812254220247268566e-01
2.486124476790428250e+00 2.050411939620971680e+00 -1.794110447168350275e-01
2.583704286813735873e+00 2.109146356582641602e+00 -1.845503062009811457e-01
2.648705971240997492e+00 2.140368461608886719e+00 -1.872822403907775934e-01
2.736449837684631348e+00 2.189159870147705078e+00 -1.915514886379242054e-01
2.871955546736717046e+00 2.274816274642944336e+00 -1.990464240312576349e-01
3.026197743415832697e+00 2.373488426208496094e+00 -2.076802372932434193e-01
3.216788807511329562e+00 2.498476743698120117e+00 -2.186167150735855158e-01
3.401345109939575284e+00 2.616419315338134766e+00 -2.289366900920867809e-01
3.616110384464263916e+00 2.755131721496582031e+00 -2.410740256309509277e-01
3.788290262222290039e+00 2.859086990356445312e+00 -2.501701116561889648e-01
3.866528227925300598e+00 2.890862226486206055e+00 -2.529504448175430298e-01
3.972408950328826904e+00 2.942525148391723633e+00 -2.574709504842758179e-01
4.059821879863738658e+00 2.979685783386230469e+00 -2.607225060462951549e-01
4.184197098016738892e+00 3.043052434921264648e+00 -2.662670880556106678e-01
4.337935236096382319e+00 3.126439809799194336e+00 -2.735634833574295266e-01
4.504157829284667791e+00 3.217255592346191406e+00 -2.815098643302917369e-01
4.720907735824584783e+00 3.342235565185546875e+00 -2.924456119537353627e-01
4.955278104543685558e+00 3.477388143539428711e+00 -3.042714625597000011e-01
5.146492540836334229e+00 3.580168724060058594e+00 -3.132647633552551047e-01
5.296911013126373469e+00 3.653042078018188477e+00 -3.196411818265915139e-01
5.393541991710662842e+00 3.687891960144042969e+00 -3.226905465126037598e-01
5.394499558210372747e+00 3.657287836074829102e+00 -3.200126856565475575e-01
5.450811108946799877e+00 3.664410829544067383e+00 -3.206359475851058849e-01
5.508525252342224121e+00 3.672350168228149414e+00 -3.213306397199630626e-01
5.510699406266212463e+00 3.643437623977661133e+00 -3.188007920980453491e-01
5.525182479619980214e+00 3.623070478439331055e+00 -3.170186668634414895e-01
5.635742425918579102e+00 3.665523529052734375e+00 -3.207333087921142578e-01
5.781597959995269598e+00 3.730063199996948242e+00 -3.263805299997329934e-01
5.626365914940834045e+00 3.600874185562133789e+00 -3.150764912366866843e-01
5.589225554466247914e+00 3.548714637756347656e+00 -3.105125308036804088e-01
5.596986067295074641e+00 3.525660514831542969e+00 -3.084952950477600209e-01
5.665562057495117543e+00 3.540976285934448242e+00 -3.098354250192641990e-01
5.778986424207687378e+00 3.583867549896240234e+00 -3.135884106159210205e-01
5.913823544979095459e+00 3.639276027679443359e+00 -3.184366524219512939e-01
6.025080692768097101e+00 3.679438591003417969e+00 -3.219508767127990945e-01
6.197503530979156849e+00 3.756062746047973633e+00 -3.286554902791977151e-01
6.329136180877685369e+00 3.806999206542968750e+00 -3.331124305725097767e-01
6.624511456489562633e+00 3.954932212829589844e+00 -3.460565686225891002e-01
6.854009896516799927e+00 4.061635494232177734e+00 -3.553931057453155740e-01
7.092656850814819336e+00 4.172151088714599609e+00 -3.650632202625274658e-01
7.221500641107558849e+00 4.216934680938720703e+00 -3.689817845821380393e-01
7.256714344024658203e+00 4.206790924072265625e+00 -3.680942058563232422e-01
7.245839095115661266e+00 4.170267105102539062e+00 -3.648983716964721569e-01
7.060515403747558594e+00 4.034580230712890625e+00 -3.530257701873779075e-01
6.834321185946464539e+00 3.877629041671752930e+00 -3.392925411462783813e-01
6.782036072015761974e+00 3.820865392684936523e+00 -3.343257218599319236e-01
6.704297402501106617e+00 3.750655889511108398e+00 -3.281823903322219627e-01
6.542738628387451350e+00 3.634854793548583984e+00 -3.180497944355010764e-01
6.388539358973503113e+00 3.524711370468139648e+00 -3.084122449159621970e-01
6.143130457401275279e+00 3.366098880767822266e+00 -2.945336520671844593e-01
5.957300922274589183e+00 3.242068529129028320e+00 -2.836809962987899558e-01
5.792925238609313965e+00 3.131310939788818359e+00 -2.739897072315216064e-01
4.792530357837677002e+00 2.573170661926269531e+00 -2.251524329185485840e-01
4.234586209058761597e+00 2.258445978164672852e+00 -1.976140230894088690e-01
3.917911735177040278e+00 2.075714826583862305e+00 -1.816250473260879461e-01
3.724344348907470792e+00 1.960181236267089844e+00 -1.715158581733703669e-01
3.714811688661575406e+00 1.942385196685791016e+00 -1.699587047100067083e-01
3.753998845815658569e+00 1.950129270553588867e+00 -1.706363111734390259e-01
3.809838384389877319e+00 1.966368198394775391e+00 -1.720572173595428522e-01
3.836525452136993586e+00 1.967448949813842773e+00 -1.721517831087112371e-01
3.556208944320678800e+00 4.246219635009765625e+00 -4.246219635009765847e-01
3.484669995307922541e+00 4.099611759185791016e+00 -4.099611759185791127e-01
3.381955245137214572e+00 3.921107530593872070e+00 -3.921107530593871959e-01
3.229934781789779663e+00 3.691354036331176758e+00 -3.691354036331176980e-01
2.538319733738899409e+00 2.860078573226928711e+00 -2.860078573226928489e-01
2.344674253463745028e+00 2.605193614959716797e+00 -2.605193614959716575e-01
2.269897225499152960e+00 2.487558603286743164e+00 -2.487558603286743053e-01
2.219022887945174993e+00 2.398943662643432617e+00 -2.398943662643432673e-01
2.169846743345260620e+00 2.314503192901611328e+00 -2.314503192901611328e-01
2.117287349700927912e+00 2.228723526000976562e+00 -2.228723526000976618e-01
2.026007673144340604e+00 2.104943037033081055e+00 -2.104943037033080999e-01
1.913495707511901900e+00 1.962559700012207031e+00 -1.962559700012206920e-01
1.754362249374389560e+00 1.776569366455078125e+00 -1.776569366455078014e-01
1.599080681800842285e+00 1.599080681800842285e+00 -1.599080681800842396e-01
1.387256084382534116e+00 1.370129466056823730e+00 -1.370129466056823619e-01
