7.652622401714325173e-01 2.111068248748779297e+00 -1.662466245889663741e+00
6.860667765140533447e-01 1.829511404037475586e+00 -1.440740230679512068e+00
6.759724706411361916e-01 1.744445085525512695e+00 -1.373750504851341203e+00
7.084527492523193803e-01 1.771131873130798340e+00 -1.394766350090503648e+00
7.323362901806831360e-01 1.775360703468322754e+00 -1.398096553981304169e+00
7.562180936336517778e-01 1.779336690902709961e+00 -1.401227644085884183e+00
7.821712940931320190e-01 1.787820100784301758e+00 -1.407908329367637545e+00
8.027271151542663130e-01 1.783838033676147461e+00 -1.404772451519966214e+00
8.225041851401329041e-01 1.778387427330017090e+00 -1.400480099022388458e+00
8.390041470527649370e-01 1.766324520111083984e+00 -1.390980559587478682e+00
8.551937028765678184e-01 1.754243493080139160e+00 -1.381466750800609544e+00
8.750986456871032715e-01 1.750197291374206543e+00 -1.378280366957187697e+00
8.939754426479339378e-01 1.744342327117919922e+00 -1.373669582605361983e+00
9.117552638053894043e-01 1.736676692962646484e+00 -1.367632895708084106e+00
9.330125063657760398e-01 1.735837221145629883e+00 -1.366971811652183622e+00
9.563327491283416526e-01 1.738786816596984863e+00 -1.369294618070125535e+00
9.745022580027580261e-01 1.732448458671569824e+00 -1.364303161203861192e+00
9.974504917860030906e-01 1.734696507453918457e+00 -1.366073499619960829e+00
1.009872078895568848e+00 1.718931198120117188e+00 -1.353658318519592285e+00
1.015311884880065962e+00 1.692186474800109863e+00 -1.332596848905086562e+00
1.020509338378906339e+00 1.666137695312500000e+00 -1.312083435058593706e+00
1.038575023412704468e+00 1.661720037460327148e+00 -1.308604529500007718e+00
1.051894515752792358e+00 1.650030612945556641e+00 -1.299399107694625854e+00
1.067791235446929887e+00 1.642755746841430664e+00 -1.293670150637626692e+00
1.103716871142387479e+00 1.665987730026245117e+00 -1.311965337395668119e+00
1.256131428480148360e+00 1.860935449600219727e+00 -1.465486666560173123e+00
1.602998405694961548e+00 2.331634044647216797e+00 -1.836161810159683272e+00
2.345206379890441895e+00 3.350294828414916992e+00 -2.638357177376747131e+00
0.000000000000000000e+00 1.797359228134155273e+00 -1.437887382507324174e+00
2.207601666450500350e-02 1.766081333160400391e+00 -1.412865066528320224e+00
4.464844465255737166e-02 1.785937786102294922e+00 -1.428750228881835893e+00
6.799899637699127752e-02 1.813306570053100586e+00 -1.450645256042480513e+00
9.106841087341308039e-02 1.821368217468261719e+00 -1.457094573974609286e+00
1.145208925008773804e-01 1.832334280014038086e+00 -1.465867424011230380e+00
1.381397366523742787e-01 1.841863155364990234e+00 -1.473490524291992232e+00
1.627370044589042664e-01 1.859851479530334473e+00 -1.487881183624267578e+00
1.872305631637573298e-01 1.872305631637573242e+00 -1.497844505310058638e+00
2.109499588608741705e-01 1.875110745429992676e+00 -1.500088596343994052e+00
2.350980341434478760e-01 1.880784273147583008e+00 -1.504627418518066362e+00
2.595100134611129650e-01 1.887345552444458008e+00 -1.509876441955566362e+00
2.816345572471618541e-01 1.877563714981079102e+00 -1.502050971984863370e+00
3.024199873208999745e-01 1.861046075820922852e+00 -1.488836860656738370e+00
3.289363920688629372e-01 1.879636526107788086e+00 -1.503709220886230380e+00
3.567848950624465942e-01 1.902852773666381836e+00 -1.522282218933105558e+00
3.812239408493042214e-01 1.906119704246520996e+00 -1.524895763397216886e+00
4.036822572350501903e-01 1.899681210517883301e+00 -1.519744968414306729e+00
4.221419334411621316e-01 1.876186370849609375e+00 -1.500949096679687456e+00
4.347823411226272583e-01 1.830662488937377930e+00 -1.464529991149902344e+00
4.481052160263061523e-01 1.792420864105224609e+00 -1.433936691284179776e+00
4.559309542179107444e-01 1.736879825592041016e+00 -1.389503860473632724e+00
4.923597127199172974e-01 1.790398955345153809e+00 -1.432319164276123047e+00
5.326128974556922913e-01 1.852566599845886230e+00 -1.482053279876708984e+00
6.119547128677368386e-01 2.039849042892456055e+00 -1.631879234313964755e+00
7.031299918889999390e-01 2.250015974044799805e+00 -1.800012779235839799e+00
7.287581264972686768e-01 2.242332696914672852e+00 -1.793866157531738281e+00
7.368893444538116011e-01 2.183375835418701172e+00 -1.746700668334960849e+00
7.631909489631653054e-01 2.180545568466186523e+00 -1.744436454772949174e+00
7.615203082561492476e-01 2.100745677947998047e+00 -1.680596542358398393e+00
6.825672984123229980e-01 1.820179462432861328e+00 -1.456143569946289018e+00
6.824367105960845725e-01 1.761126995086669922e+00 -1.408901596069335849e+00
7.092273712158203569e-01 1.773068428039550781e+00 -1.418454742431640714e+00
7.342376455664634261e-01 1.779970049858093262e+00 -1.423976039886474698e+00
7.620821416378020796e-01 1.793134450912475586e+00 -1.434507560729980424e+00
7.861457467079162598e-01 1.796904563903808594e+00 -1.437523651123046919e+00
8.085735797882079856e-01 1.796830177307128906e+00 -1.437464141845703036e+00
8.314052864909171614e-01 1.797633051872253418e+00 -1.438106441497802646e+00
8.465231329202651533e-01 1.782153964042663574e+00 -1.425723171234130948e+00
8.557648524641990884e-01 1.755415081977844238e+00 -1.404332065582275302e+00
8.692476153373718262e-01 1.738495230674743652e+00 -1.390796184539794922e+00
8.881489574909210427e-01 1.732973575592041016e+00 -1.386378860473632901e+00
9.123157739639282671e-01 1.737744331359863281e+00 -1.390195465087890714e+00
9.343946680426598039e-01 1.738408684730529785e+00 -1.390726947784423739e+00
9.556433320045470969e-01 1.737533330917358398e+00 -1.390026664733886808e+00
9.772576242685317993e-01 1.737346887588500977e+00 -1.389877510070800737e+00
1.000004696846008345e+00 1.739138603210449219e+00 -1.391310882568359331e+00
1.014473758637905121e+00 1.726763844490051270e+00 -1.381411075592041016e+00
1.024176549911498979e+00 1.706960916519165039e+00 -1.365568733215332120e+00
1.028701698780059903e+00 1.679512977600097656e+00 -1.343610382080078214e+00
1.042430698871612549e+00 1.667889118194580078e+00 -1.334311294555664107e+00
1.054734179377555758e+00 1.654484987258911133e+00 -1.323587989807128995e+00
1.074960631132125810e+00 1.653785586357116699e+00 -1.323028469085693271e+00
1.085767407715320543e+00 1.638894200325012207e+00 -1.311115360260009854e+00
1.124064069986343339e+00 1.665280103683471680e+00 -1.332224082946777299e+00
1.311529614031314850e+00 1.907679438591003418e+00 -1.526143550872802734e+00
2.151127004623412997e+00 3.073038578033447266e+00 -2.458430862426757901e+00
0.000000000000000000e+00 1.631734848022460938e+00 -1.325784564018249512e+00
2.128159403800964494e-02 1.702527523040771484e+00 -1.383303612470626831e+00
4.325298666954040250e-02 1.730119466781616211e+00 -1.405722066760063171e+00
6.556533873081207831e-02 1.748409032821655273e+00 -1.420582339167594910e+00
8.783769011497497003e-02 1.756753802299499512e+00 -1.427362464368343353e+00
1.102063134312629700e-01 1.763301014900207520e+00 -1.432682074606418610e+00
1.325335800647735596e-01 1.767114400863647461e+00 -1.435780450701713562e+00
1.554485052824020330e-01 1.776554346084594727e+00 -1.443450406193733215e+00
1.788082003593444713e-01 1.788082003593444824e+00 -1.452816627919673920e+00
2.012451767921447643e-01 1.788846015930175781e+00 -1.453437387943267822e+00
2.240094393491744995e-01 1.792075514793395996e+00 -1.456061355769634247e+00
2.473802059888839666e-01 1.799128770828247070e+00 -1.461792126297950745e+00
2.702362954616546742e-01 1.801575303077697754e+00 -1.463779933750629425e+00
2.922585070133209006e-01 1.798513889312744141e+00 -1.461292535066604614e+00
3.131066113710403442e-01 1.789180636405944824e+00 -1.453709267079830170e+00
3.329077363014221191e-01 1.775507926940917969e+00 -1.442600190639495850e+00
3.558283090591430886e-01 1.779141545295715332e+00 -1.445552505552768707e+00
3.787273496389388927e-01 1.782246351242065430e+00 -1.448075160384178162e+00
3.993239253759384155e-01 1.774773001670837402e+00 -1.442003063857555389e+00
4.133843719959259255e-01 1.740565776824951172e+00 -1.414209693670272827e+00
4.277583658695220947e-01 1.711033463478088379e+00 -1.390214689075946808e+00
4.470136731863021962e-01 1.702909231185913086e+00 -1.383613750338554382e+00
4.685532182455062755e-01 1.703829884529113770e+00 -1.384361781179904938e+00
4.960171222686767800e-01 1.725276947021484375e+00 -1.401787519454956055e+00
5.752752184867858665e-01 1.917584061622619629e+00 -1.558037050068378448e+00
6.753022223711013794e-01 2.160967111587524414e+00 -1.755785778164863586e+00
7.194374084472656694e-01 2.213653564453125000e+00 -1.798593521118164062e+00
7.346492439508438554e-01 2.176738500595092773e+00 -1.768600031733512878e+00
7.629068136215210183e-01 2.179733753204345703e+00 -1.771033674478530884e+00
7.262872397899627908e-01 2.003551006317138672e+00 -1.627885192632675171e+00
6.797187477350234985e-01 1.812583327293395996e+00 -1.472723953425884247e+00
6.903099939227104187e-01 1.781445145606994629e+00 -1.447424180805683136e+00
7.100403785705566850e-01 1.775100946426391602e+00 -1.442269518971443176e+00
7.351820290088653120e-01 1.782259464263916016e+00 -1.448085814714431763e+00
7.603430509567260520e-01 1.789042472839355469e+00 -1.453597009181976318e+00
7.898299098014831543e-01 1.805325508117675781e+00 -1.466826975345611572e+00
8.104747295379638450e-01 1.801054954528808594e+00 -1.463357150554656982e+00
8.247585713863372359e-01 1.783261775970458984e+00 -1.448900192975997925e+00
8.442186892032623735e-01 1.777302503585815430e+00 -1.444058284163475037e+00
8.620785310864448325e-01 1.768366217613220215e+00 -1.436797551810741425e+00
8.778115510940551758e-01 1.755623102188110352e+00 -1.426443770527839661e+00
8.951102167367934737e-01 1.746556520462036133e+00 -1.419077172875404358e+00
9.210771560668945535e-01 1.754432678222656250e+00 -1.425476551055908203e+00
9.410280957818031311e-01 1.750749945640563965e+00 -1.422484330832958221e+00
9.600083947181701216e-01 1.745469808578491211e+00 -1.418194219470024109e+00
9.786311835050582886e-01 1.739788770675659180e+00 -1.413578376173973083e+00
1.001301506161689669e+00 1.741393923759460449e+00 -1.414882563054561615e+00
1.017577379941940308e+00 1.732046604156494141e+00 -1.407287865877151489e+00
1.035573577880859464e+00 1.725955963134765625e+00 -1.402339220046997070e+00
1.040459050238132566e+00 1.698708653450012207e+00 -1.380200780928134918e+00
1.048155575990676880e+00 1.677048921585083008e+00 -1.362602248787879944e+00
1.061479957401752383e+00 1.665066599845886230e+00 -1.352866612374782562e+00
1.070780646800994829e+00 1.647354841232299805e+00 -1.338475808501243591e+00
1.078572443127632230e+00 1.628033876419067383e+00 -1.322777524590492249e+00
1.082536795735359103e+00 1.603758215904235840e+00 -1.303053550422191620e+00
1.139480784535408020e+00 1.657426595687866211e+00 -1.346659108996391296e+00
1.491692686080932528e+00 2.130989551544189453e+00 -1.731429010629653931e+00
0.000000000000000000e+00 1.752061605453491211e+00 -1.445450824499130205e+00
2.183030396699905257e-02 1.746424317359924316e+00 -1.440800061821937650e+00
4.391199052333831510e-02 1.756479620933532715e+00 -1.449095687270164579e+00
6.594838500022888461e-02 1.758623600006103516e+00 -1.450864470005035489e+00
8.764641284942627231e-02 1.752928256988525391e+00 -1.446165812015533403e+00
1.096452474594116211e-01 1.754323959350585938e+00 -1.447317266464233310e+00
1.315276712179183904e-01 1.753702282905578613e+00 -1.446804383397102267e+00
1.537902563810348566e-01 1.757602930068969727e+00 -1.450022417306900069e+00
1.765909671783447155e-01 1.765909671783447266e+00 -1.456875479221344083e+00
1.993247553706169184e-01 1.771775603294372559e+00 -1.461714872717857272e+00
2.224452942609786987e-01 1.779562354087829590e+00 -1.468138942122459323e+00
2.458556368947029114e-01 1.788040995597839355e+00 -1.475133821368217468e+00
2.688632726669311634e-01 1.792421817779541016e+00 -1.478747999668121427e+00
2.909781858325004578e-01 1.790634989738464355e+00 -1.477273866534233093e+00
3.129126608371734508e-01 1.788072347640991211e+00 -1.475159686803817705e+00
3.363725021481513977e-01 1.793986678123474121e+00 -1.480039009451866061e+00
3.607993125915527344e-01 1.803996562957763672e+00 -1.488297164440155029e+00
3.834432512521743774e-01 1.804438829421997070e+00 -1.488662034273147583e+00
4.055616974830627552e-01 1.802496433258056641e+00 -1.487059557437896640e+00
4.251649960875510947e-01 1.790168404579162598e+00 -1.476888933777809054e+00
4.431550502777099609e-01 1.772620201110839844e+00 -1.462411665916442782e+00
4.635238766670227162e-01 1.765805244445800781e+00 -1.456789326667785600e+00
4.844256788492202759e-01 1.761547923088073730e+00 -1.453277036547660828e+00
5.250246882438659446e-01 1.826172828674316406e+00 -1.506592583656310991e+00
6.224789857864380105e-01 2.074929952621459961e+00 -1.711817210912704557e+00
6.922973692417144775e-01 2.215351581573486328e+00 -1.827665054798126132e+00
7.110052227973937544e-01 2.187708377838134766e+00 -1.804859411716461137e+00
7.344562053680420144e-01 2.176166534423828125e+00 -1.795337390899658159e+00
7.563160419464111106e-01 2.160902976989746094e+00 -1.782744956016540483e+00
6.946175456047057883e-01 1.916186332702636719e+00 -1.580853724479675204e+00
6.757295876741409302e-01 1.801945567131042480e+00 -1.486605092883110046e+00
6.889087572693824990e-01 1.777829051017761230e+00 -1.466708967089652926e+00
7.156013965606689009e-01 1.789003491401672363e+00 -1.475927880406379789e+00
7.413876682519913164e-01 1.797303438186645508e+00 -1.482775336503982633e+00
7.612214624881744607e-01 1.791109323501586914e+00 -1.477665191888809293e+00
7.913524955511093140e-01 1.808805704116821289e+00 -1.492264705896377608e+00
8.121129155158997026e-01 1.804695367813110352e+00 -1.488873678445816084e+00
8.291139602661132812e-01 1.792678833007812500e+00 -1.478960037231445312e+00
8.476073205471038596e-01 1.784436464309692383e+00 -1.472160083055496171e+00
8.684696182608604431e-01 1.781476140022277832e+00 -1.469717815518379211e+00
8.844054341316223145e-01 1.768810868263244629e+00 -1.459268966317176730e+00
9.015772193670272827e-01 1.759175062179565430e+00 -1.451319426298141479e+00
9.216580688953399658e-01 1.755539178848266602e+00 -1.448319822549819946e+00
9.401531517505645752e-01 1.749122142791748047e+00 -1.443025767803192139e+00
9.595938265323639138e-01 1.744716048240661621e+00 -1.439390739798545926e+00
9.835583344101905823e-01 1.748548150062561035e+00 -1.442552223801612854e+00
1.002247431874275119e+00 1.743039011955261230e+00 -1.438007184863090426e+00
1.025698271393775896e+00 1.745869398117065430e+00 -1.440342253446579068e+00
1.040912389755249023e+00 1.734853982925415039e+00 -1.431254535913467407e+00
1.048119856417179196e+00 1.711216092109680176e+00 -1.411753275990486056e+00
1.057729572057723999e+00 1.692367315292358398e+00 -1.396203035116195590e+00
1.067601352930068970e+00 1.674668788909912109e+00 -1.381601750850677490e+00
1.076701974868774503e+00 1.656464576721191406e+00 -1.366583275794982955e+00
1.084029379487037703e+00 1.636270761489868164e+00 -1.349923378229141324e+00
1.101425045728683383e+00 1.631740808486938477e+00 -1.346186167001724332e+00
1.088162317872047424e+00 1.582781553268432617e+00 -1.305794781446456998e+00
1.188529205322265581e+00 1.697898864746093750e+00 -1.400766563415527299e+00
1.825802484154701144e+00 2.562529802322387695e+00 -2.114087086915970026e+00
0.000000000000000000e+00 1.763863444328308105e+00 -1.477235634624957994e+00
2.208006381988525391e-02 1.766405105590820312e+00 -1.479364275932312012e+00
4.438456594943999967e-02 1.775382637977600098e+00 -1.486882959306240037e+00
6.622401773929595392e-02 1.765973806381225586e+00 -1.479003062844276517e+00
8.776355981826781949e-02 1.755271196365356445e+00 -1.470039626955986112e+00
1.092648431658744812e-01 1.748237490653991699e+00 -1.464148898422718004e+00
1.309627711772918812e-01 1.746170282363891602e+00 -1.462417611479759127e+00
1.529480516910552979e-01 1.747977733612060547e+00 -1.463931351900100708e+00
1.755502462387084905e-01 1.755502462387084961e+00 -1.470233312249183744e+00
1.984056293964386042e-01 1.763605594635009766e+00 -1.477019685506820723e+00
2.212536633014678955e-01 1.770029306411743164e+00 -1.482399544119834989e+00
2.446801692247390636e-01 1.779492139816284180e+00 -1.490324667096138089e+00
2.672925174236297496e-01 1.781950116157531738e+00 -1.492383222281932875e+00
2.898184910416602977e-01 1.783498406410217285e+00 -1.493679915368556932e+00
3.127608507871627586e-01 1.787204861640930176e+00 -1.496784071624279067e+00
3.358920291066169739e-01 1.791424155235290527e+00 -1.500317730009555817e+00
3.599307060241699330e-01 1.799653530120849609e+00 -1.507209831476211459e+00
3.834826171398162953e-01 1.804624080657958984e+00 -1.511372667551040605e+00
4.071298509836197010e-01 1.809466004371643066e+00 -1.515427778661251113e+00
4.294775113463401572e-01 1.808326363563537598e+00 -1.514473329484462782e+00
4.461771845817565918e-01 1.784708738327026367e+00 -1.494693568348884671e+00
4.699473381042480469e-01 1.790275573730468750e+00 -1.499355792999267578e+00
4.928617447614669911e-01 1.792224526405334473e+00 -1.500988040864467576e+00
5.493463233113289323e-01 1.910769820213317871e+00 -1.600269724428653673e+00
6.616915941238403764e-01 2.205638647079467773e+00 -1.847222366929054171e+00
6.986807286739349365e-01 2.235778331756591797e+00 -1.872464352846145541e+00
7.069373607635498491e-01 2.175191879272460938e+00 -1.821723198890686124e+00
7.261685818433761819e-01 2.151610612869262695e+00 -1.801973888278007419e+00
7.410428285598754661e-01 2.117265224456787109e+00 -1.773209625482559115e+00
6.958030179142952187e-01 1.919456601142883301e+00 -1.607544903457164720e+00
6.833652555942535400e-01 1.822307348251342773e+00 -1.526182404160499662e+00
6.977453619241714700e-01 1.800633192062377930e+00 -1.508030298352241561e+00
7.216915607452392134e-01 1.804228901863098145e+00 -1.511041705310344652e+00
7.449011385440826860e-01 1.805820941925048828e+00 -1.512375038862228349e+00
7.660614401102066040e-01 1.802497506141662598e+00 -1.509591661393642426e+00
7.905489057302474976e-01 1.806968927383422852e+00 -1.513336476683616594e+00
8.159858107566833052e-01 1.813301801681518555e+00 -1.518640258908271701e+00
8.340656265616417375e-01 1.803385138511657715e+00 -1.510335053503513381e+00
8.513217687606811079e-01 1.792256355285644531e+00 -1.501014697551727339e+00
8.717511132359504478e-01 1.788207411766052246e+00 -1.497623707354068801e+00
8.900198936462402344e-01 1.780039787292480469e+00 -1.490783321857452437e+00
9.084967508912086265e-01 1.772676587104797363e+00 -1.484616641700267747e+00
9.267452180385589156e-01 1.765228986740112305e+00 -1.478379276394844011e+00
9.447118312120437178e-01 1.757603406906127930e+00 -1.471992853283882186e+00
9.655498266220092773e-01 1.755545139312744141e+00 -1.470269054174423218e+00
9.822243377566337585e-01 1.746176600456237793e+00 -1.462422902882099196e+00
1.000852328538894609e+00 1.740612745285034180e+00 -1.457763174176216037e+00
1.025792679190635770e+00 1.746030092239379883e+00 -1.462300202250480741e+00
1.047929620742797940e+00 1.746549367904663086e+00 -1.462735095620155246e+00
1.061610600352287381e+00 1.733241796493530273e+00 -1.451590004563331648e+00
1.064874306321144104e+00 1.703798890113830566e+00 -1.426931570470333144e+00
1.074451549351215451e+00 1.685414195060729980e+00 -1.411534388363361314e+00
1.083298051357269198e+00 1.666612386703491211e+00 -1.395787873864173800e+00
1.096934714913368136e+00 1.655750513076782227e+00 -1.386691054701805204e+00
1.105457532405853316e+00 1.637714862823486328e+00 -1.371586197614669711e+00
1.119148798286914825e+00 1.627852797508239746e+00 -1.363326717913150743e+00
1.137129998207092374e+00 1.624471426010131836e+00 -1.360494819283485368e+00
1.288733549416065216e+00 1.808748841285705566e+00 -1.514827154576778412e+00
2.216724407672882258e+00 3.057550907135009766e+00 -2.560698884725570501e+00
0.000000000000000000e+00 1.750558137893676758e+00 -1.487974417209625200e+00
2.230102717876434465e-02 1.784082174301147461e+00 -1.516469848155975297e+00
4.513723850250243863e-02 1.805489540100097656e+00 -1.534666109085083052e+00
6.735580712556839267e-02 1.796154856681823730e+00 -1.526731628179550215e+00
8.959752321243286133e-02 1.791950464248657227e+00 -1.523157894611358643e+00
1.117006391286849976e-01 1.787210226058959961e+00 -1.519128692150115922e+00
1.337695062160491888e-01 1.783593416213989258e+00 -1.516054403781890825e+00
1.558312952518463024e-01 1.780929088592529297e+00 -1.513789725303649858e+00
1.782416701316833496e-01 1.782416701316833496e+00 -1.515054196119308472e+00
2.005474805831909124e-01 1.782644271850585938e+00 -1.515247631072998091e+00
2.240107059478759766e-01 1.792085647583007812e+00 -1.523272800445556685e+00
2.471964269876480158e-01 1.797792196273803711e+00 -1.528123366832733199e+00
2.695697665214538685e-01 1.797131776809692383e+00 -1.527562010288238570e+00
2.923662707209587208e-01 1.799177050590515137e+00 -1.529300493001937822e+00
3.149626910686492698e-01 1.799786806106567383e+00 -1.529818785190582231e+00
3.380931168794631958e-01 1.803163290023803711e+00 -1.532688796520233154e+00
3.615300416946410911e-01 1.807650208473205566e+00 -1.536502677202224776e+00
3.850215345621109120e-01 1.811866044998168945e+00 -1.540086138248443648e+00
4.081146240234375111e-01 1.813842773437500000e+00 -1.541766357421874956e+00
4.335111796855926625e-01 1.825310230255126953e+00 -1.551513695716857821e+00
4.527117013931274414e-01 1.810846805572509766e+00 -1.539219784736633345e+00
4.716691106557845958e-01 1.796834707260131836e+00 -1.527309501171111972e+00
4.968332201242446899e-01 1.806666254997253418e+00 -1.535666316747665405e+00
5.684029221534728782e-01 1.977053642272949219e+00 -1.680495595932006925e+00
6.723889589309692827e-01 2.241296529769897461e+00 -1.905102050304412931e+00
6.973610818386077881e-01 2.231555461883544922e+00 -1.896822142601013228e+00
7.019550085067749468e-01 2.159861564636230469e+00 -1.835882329940795810e+00
7.160140603780746904e-01 2.121523141860961914e+00 -1.803294670581817583e+00
7.231970429420471191e-01 2.066277265548706055e+00 -1.756335675716400146e+00
7.019847333431243896e-01 1.936509609222412109e+00 -1.646033167839050293e+00
6.968849301338195801e-01 1.858359813690185547e+00 -1.579605841636657626e+00
7.064738273620605469e-01 1.823158264160156250e+00 -1.549684524536132812e+00
7.251310825347900835e-01 1.812827706336975098e+00 -1.540903550386428789e+00
7.477254867553710938e-01 1.812667846679687500e+00 -1.540767669677734375e+00
7.675657033920287864e-01 1.806036949157714844e+00 -1.535131406784057573e+00
7.929850220680236816e-01 1.812537193298339844e+00 -1.540656614303588912e+00
8.179908692836761475e-01 1.817757487297058105e+00 -1.545093864202499390e+00
8.426708772778510603e-01 1.821991086006164551e+00 -1.548692423105239913e+00
8.599619746208191362e-01 1.810446262359619141e+00 -1.538879323005676314e+00
8.746235400438309160e-01 1.794099569320678711e+00 -1.524984633922576993e+00
8.905476927757263184e-01 1.781095385551452637e+00 -1.513931077718734697e+00
9.085307806730270608e-01 1.772742986679077148e+00 -1.506831538677215532e+00
9.286914825439452903e-01 1.768936157226562500e+00 -1.503595733642578036e+00
9.507077127695083840e-01 1.768758535385131836e+00 -1.503444755077361972e+00
9.693682730197906716e-01 1.762487769126892090e+00 -1.498114603757858321e+00
9.870012849569320679e-01 1.754668951034545898e+00 -1.491468608379364014e+00
1.002793738245963961e+00 1.743989109992980957e+00 -1.482390743494033769e+00
1.029807811975479215e+00 1.752864360809326172e+00 -1.489934706687927157e+00
1.054544878005981401e+00 1.757574796676635742e+00 -1.493938577175140336e+00
1.067521147429943085e+00 1.742891669273376465e+00 -1.481457918882369995e+00
1.067599505186080933e+00 1.708159208297729492e+00 -1.451935327053070157e+00
1.080677819252014116e+00 1.695180892944335938e+00 -1.440903759002685636e+00
1.093672502040863082e+00 1.682573080062866211e+00 -1.430187118053436235e+00
1.111055888235569000e+00 1.677065491676330566e+00 -1.425505667924880981e+00
1.122322940826415927e+00 1.662700653076171875e+00 -1.413295555114746138e+00
1.136978410184383392e+00 1.653786778450012207e+00 -1.405718761682510420e+00
1.159045052528381303e+00 1.655778646469116211e+00 -1.407411849498748868e+00
1.169187466800212905e+00 1.640964865684509277e+00 -1.394820135831832841e+00
1.378742280602455184e+00 1.901713490486145020e+00 -1.616456466913223311e+00
2.359055632352828891e+00 3.198719501495361328e+00 -2.718911576271056951e+00
0.000000000000000000e+00 1.750688314437866211e+00 -1.509968671202659651e+00
2.242990136146545341e-02 1.794392108917236328e+00 -1.547663193941116289e+00
4.525787830352782926e-02 1.810315132141113281e+00 -1.561396801471710116e+00
6.759916841983795721e-02 1.802644491195678711e+00 -1.554780873656272933e+00
8.992892503738403320e-02 1.798578500747680664e+00 -1.551273956894874573e+00
1.120554059743881226e-01 1.792886495590209961e+00 -1.546364602446556047e+00
1.339253336191177368e-01 1.785671114921569824e+00 -1.540141336619853973e+00
1.557231172919273376e-01 1.779692769050598145e+00 -1.534985013306140900e+00
1.783208847045898438e-01 1.783208847045898438e+00 -1.538017630577087402e+00
2.010559201240539606e-01 1.787163734436035156e+00 -1.541428720951080411e+00
2.248127758502960205e-01 1.798502206802368164e+00 -1.551208153367042542e+00
2.478654697537422125e-01 1.802657961845397949e+00 -1.554792492091655820e+00
2.703680276870727428e-01 1.802453517913818359e+00 -1.554616159200668424e+00
2.915534228086471558e-01 1.794174909591674805e+00 -1.547475859522819519e+00
3.140882343053817971e-01 1.794789910316467285e+00 -1.548006297647952945e+00
3.377718329429626465e-01 1.801449775695800781e+00 -1.553750431537628263e+00
3.622568607330322044e-01 1.811284303665161133e+00 -1.562232711911201388e+00
3.856190145015716553e-01 1.814677715301513672e+00 -1.565159529447555542e+00
4.109758436679840088e-01 1.826559305191040039e+00 -1.575407400727272034e+00
4.340280756354332192e-01 1.827486634254455566e+00 -1.576207222044467837e+00
4.566067159175872803e-01 1.826426863670349121e+00 -1.575293169915676028e+00
4.766367226839065552e-01 1.815758943557739258e+00 -1.566092088818550110e+00
5.013554424047470537e-01 1.823110699653625488e+00 -1.572432978451252072e+00
5.850906282663345115e-01 2.035097837448120117e+00 -1.755271884799003645e+00
6.750050067901611772e-01 2.250016689300537109e+00 -1.940639394521713301e+00
6.966383010149002075e-01 2.229242563247680664e+00 -1.922721710801124528e+00
7.034455299377441184e-01 2.164447784423828125e+00 -1.866836214065551669e+00
7.134364038705826028e-01 2.113885641098022461e+00 -1.823226365447044417e+00
7.174222111701965554e-01 2.049777746200561523e+00 -1.767933306097984270e+00
7.047550991177559121e-01 1.944151997566223145e+00 -1.676831097900867373e+00
7.014089226722717285e-01 1.870423793792724609e+00 -1.613240522146224931e+00
7.137351840734481589e-01 1.841897249221801758e+00 -1.588636377453803927e+00
7.302574157714843972e-01 1.825643539428710938e+00 -1.574617552757263228e+00
7.506140068173408064e-01 1.819670319557189941e+00 -1.569465650618076413e+00
7.728558301925658736e-01 1.818484306335449219e+00 -1.568442714214324907e+00
7.957368791103363037e-01 1.818827152252197266e+00 -1.568738418817520186e+00
8.163962423801421897e-01 1.814213871955871582e+00 -1.564759464561939151e+00
8.406282618641853777e-01 1.817574620246887207e+00 -1.567658109962940305e+00
8.593098878860473411e-01 1.809073448181152344e+00 -1.560325849056243941e+00
8.741125389933586121e-01 1.793051362037658691e+00 -1.546506799757480621e+00
8.912139534950256348e-01 1.782427906990051270e+00 -1.537344069778919131e+00
9.062574446201324685e-01 1.768307209014892578e+00 -1.525164967775344937e+00
9.229247242212295088e-01 1.757951855659484863e+00 -1.516233475506305606e+00
9.470765188336371931e-01 1.762002825736999512e+00 -1.519727437198162168e+00
9.719884514808654341e-01 1.767251729965209961e+00 -1.524254617094993547e+00
9.946001172065734863e-01 1.768177986145019531e+00 -1.525053513050079301e+00
1.013442188501358032e+00 1.762508153915405273e+00 -1.520163282752037048e+00
1.032393661141395524e+00 1.757265806198120117e+00 -1.515641757845878512e+00
1.053909015655517534e+00 1.756515026092529297e+00 -1.514994210004806607e+00
1.070887973904609769e+00 1.748388528823852539e+00 -1.507985106110572904e+00
1.071581840515136719e+00 1.714530944824218750e+00 -1.478782939910888716e+00
1.091078773140907288e+00 1.711496114730834961e+00 -1.476165398955345154e+00
1.104740220308303877e+00 1.699600338935852051e+00 -1.465905292332172483e+00
1.120702272653579801e+00 1.691626071929931641e+00 -1.459027487039566084e+00
1.140638431906700223e+00 1.689834713935852051e+00 -1.457482440769672483e+00
1.154819741845130920e+00 1.679737806320190430e+00 -1.448773857951164201e+00
1.167830967903137118e+00 1.668329954147338867e+00 -1.438934585452079862e+00
1.187614041566848799e+00 1.666826725006103516e+00 -1.437638050317764371e+00
1.231966608762741000e+00 1.699264287948608398e+00 -1.465615448355674699e+00
1.592760753631591752e+00 2.159675598144531250e+00 -1.862720203399658159e+00
2.476532578468322754e+00 3.302043437957763672e+00 -2.848012465238570989e+00
0.000000000000000000e+00 1.772846221923828125e+00 -1.551240444183349609e+00
2.267859131097793579e-02 1.814287304878234863e+00 -1.587501391768455505e+00
4.633554220199585100e-02 1.853421688079833984e+00 -1.621743977069854736e+00
6.921791732311248502e-02 1.845811128616333008e+00 -1.615084737539291382e+00
9.178532361984252652e-02 1.835706472396850586e+00 -1.606243163347244263e+00
1.140462979674339294e-01 1.824740767478942871e+00 -1.596648171544075012e+00
1.359037220478057917e-01 1.812049627304077148e+00 -1.585543423891067505e+00
1.577703624963760487e-01 1.803089857101440430e+00 -1.577703624963760376e+00
1.799093484878540039e-01 1.799093484878540039e+00 -1.574206799268722534e+00
2.023819103837013189e-01 1.798950314521789551e+00 -1.574081525206565857e+00
2.262433022260665894e-01 1.809946417808532715e+00 -1.583703115582466125e+00
2.461301907896995544e-01 1.790037751197814941e+00 -1.566283032298088074e+00
2.683725357055664062e-01 1.789150238037109375e+00 -1.565506458282470703e+00
2.929943919181823841e-01 1.803042411804199219e+00 -1.577662110328674316e+00
3.187792837619781716e-01 1.821595907211303711e+00 -1.593896418809890747e+00
3.439113199710845947e-01 1.834193706512451172e+00 -1.604919493198394775e+00
3.724274158477783314e-01 1.862137079238891602e+00 -1.629369944334030151e+00
4.027743592858314403e-01 1.895408749580383301e+00 -1.658482655882835388e+00
4.221187591552734153e-01 1.876083374023437500e+00 -1.641572952270507812e+00
4.443331241607665905e-01 1.870876312255859375e+00 -1.637016773223876953e+00
4.640918374061584473e-01 1.856367349624633789e+00 -1.624321430921554565e+00
4.849164202809334023e-01 1.847300648689270020e+00 -1.616388067603111267e+00
5.064650624990463257e-01 1.841691136360168457e+00 -1.611479744315147400e+00
5.998265743255615234e-01 2.086353302001953125e+00 -1.825559139251708984e+00
6.768482923507690430e-01 2.256160974502563477e+00 -1.974140852689743042e+00
6.977903842926025391e-01 2.232929229736328125e+00 -1.953813076019287109e+00
7.061308860778808816e-01 2.172710418701171875e+00 -1.901121616363525391e+00
7.119059354066848977e-01 2.109350919723510742e+00 -1.845682054758071899e+00
7.131631016731262429e-01 2.037608861923217773e+00 -1.782907754182815552e+00
7.082967370748519675e-01 1.953922033309936523e+00 -1.709681779146194458e+00
7.069187611341476440e-01 1.885116696357727051e+00 -1.649477109313011169e+00
7.192718565464020219e-01 1.856185436248779297e+00 -1.624162256717681885e+00
7.377407550811767578e-01 1.844351887702941895e+00 -1.613807901740074158e+00
7.570857256650924683e-01 1.835359334945678711e+00 -1.605939418077468872e+00
7.825965821743011697e-01 1.841403722763061523e+00 -1.611228257417678833e+00
8.019964098930358887e-01 1.833134651184082031e+00 -1.603992819786071777e+00
8.206961452960968018e-01 1.823769211769104004e+00 -1.595798060297966003e+00
8.407926172018050925e-01 1.817929983139038086e+00 -1.590688735246658325e+00
8.613105982542037520e-01 1.813285470008850098e+00 -1.586624786257743835e+00
8.711948990821838379e-01 1.787066459655761719e+00 -1.563683152198791504e+00
8.898358941078186035e-01 1.779671788215637207e+00 -1.557212814688682556e+00
9.089933902025222334e-01 1.773645639419555664e+00 -1.551939934492111206e+00
9.321476072072982788e-01 1.775519251823425293e+00 -1.553579345345497131e+00
9.505868032574653625e-01 1.768533587455749512e+00 -1.547466889023780823e+00
9.723815798759460893e-01 1.767966508865356445e+00 -1.546970695257186890e+00
9.935763850808143616e-01 1.766358017921447754e+00 -1.545563265681266785e+00
1.014159241318702609e+00 1.763755202293395996e+00 -1.543285802006721497e+00
1.035495251417160034e+00 1.762545108795166016e+00 -1.542226970195770264e+00
1.045251488685607910e+00 1.742085814476013184e+00 -1.524325087666511536e+00
1.078421221673488528e+00 1.760687708854675293e+00 -1.540601745247840881e+00
1.088318973779678345e+00 1.741310358047485352e+00 -1.523646563291549683e+00
1.102187705039977983e+00 1.728921890258789062e+00 -1.512806653976440430e+00
1.117838072776794478e+00 1.719750881195068359e+00 -1.504782021045684814e+00
1.135617393255233809e+00 1.714139461517333984e+00 -1.499872028827667236e+00
1.153371173143386885e+00 1.708698034286499023e+00 -1.495110780000686646e+00
1.175052478909492493e+00 1.709167242050170898e+00 -1.495521336793899536e+00
1.180088841915130526e+00 1.685841202735900879e+00 -1.475111052393913269e+00
1.198248106241226241e+00 1.681751728057861328e+00 -1.471532762050628662e+00
1.207802212238311856e+00 1.665934085845947266e+00 -1.457692325115203857e+00
1.293716508150100752e+00 1.754191875457763672e+00 -1.534917891025543213e+00
1.975930809974670410e+00 2.634574413299560547e+00 -2.305252611637115479e+00
0.000000000000000000e+00 1.811030030250549316e+00 -1.607289151847362429e+00
2.318200469017028809e-02 1.854560375213623047e+00 -1.645922333002090454e+00
4.902295470237731656e-02 1.960918188095092773e+00 -1.740314891934394925e+00
7.451181560754775723e-02 1.986981749534606934e+00 -1.763446302711963565e+00
1.010613203048706110e-01 2.021226406097412109e+00 -1.793838435411453158e+00
1.286484003067016602e-01 2.058374404907226562e+00 -1.826807284355163485e+00
1.598730862140655407e-01 2.131641149520874023e+00 -1.891831520199775740e+00
1.853354960680007879e-01 2.118119955062866211e+00 -1.879831460118293718e+00
1.962621212005615234e-01 1.962621212005615234e+00 -1.741826325654983521e+00
2.144544929265976008e-01 1.906262159347534180e+00 -1.691807666420936496e+00
2.335670739412307739e-01 1.868536591529846191e+00 -1.658326224982738406e+00
2.559079319238662942e-01 1.861148595809936523e+00 -1.651769378781318576e+00
3.307985544204711803e-01 2.205323696136474609e+00 -1.957224780321121127e+00
4.054529786109924427e-01 2.495095252990722656e+00 -2.214397037029266269e+00
4.628729104995727428e-01 2.644988059997558594e+00 -2.347426903247833430e+00
5.107022076845169067e-01 2.723745107650756836e+00 -2.417323783040046692e+00
5.489792823791503906e-01 2.744896411895751953e+00 -2.436095565557479858e+00
5.414661318063735962e-01 2.548075914382934570e+00 -2.261417374014854431e+00
4.816313982009887695e-01 2.140583992004394531e+00 -1.899768292903900146e+00
4.528573632240295299e-01 1.906767845153808594e+00 -1.692256462574005083e+00
4.668132066726684570e-01 1.867252826690673828e+00 -1.657186883687973067e+00
4.890737771987915261e-01 1.863138198852539062e+00 -1.653535151481628329e+00
5.205275654792785867e-01 1.892827510833740234e+00 -1.679884415864944414e+00
6.240048468112945335e-01 2.170451641082763672e+00 -1.926275831460952714e+00
6.777301311492920366e-01 2.259100437164306641e+00 -2.004951637983322321e+00
6.926447898149490356e-01 2.216463327407836914e+00 -1.967111203074455306e+00
6.955261468887329324e-01 2.140080451965332031e+00 -1.899321401119232089e+00
7.025297641754150169e-01 2.081569671630859375e+00 -1.847393083572387740e+00
7.039732217788696733e-01 2.011352062225341797e+00 -1.785074955224990934e+00
7.062278971076011436e-01 1.948214888572692871e+00 -1.729040713608264834e+00
7.109948247671127319e-01 1.895986199378967285e+00 -1.682687751948833466e+00
7.253635913133621438e-01 1.871906042098999023e+00 -1.661316612362861544e+00
7.499677658081054243e-01 1.874919414520263672e+00 -1.663990980386734098e+00
7.667207971215248552e-01 1.858717083930969238e+00 -1.649611411988735288e+00
7.927406191825866477e-01 1.865272045135498047e+00 -1.655428940057754428e+00
8.115885853767395020e-01 1.855059623718261719e+00 -1.646365416049957231e+00
8.294489443302154319e-01 1.843219876289367676e+00 -1.635857640206813901e+00
8.503800302743911299e-01 1.838659524917602539e+00 -1.631810328364372342e+00
8.696859717369079812e-01 1.830917835235595703e+00 -1.624939578771591231e+00
8.845877408981323020e-01 1.814538955688476562e+00 -1.610403323173522860e+00
8.981782793998718262e-01 1.796356558799743652e+00 -1.594266445934772403e+00
9.204544007778168169e-01 1.796008586883544922e+00 -1.593957620859146163e+00
9.413590371608734353e-01 1.793064832687377930e+00 -1.591345039010047868e+00
9.632893502712249756e-01 1.792166233062744141e+00 -1.590547531843185425e+00
9.817722737789154053e-01 1.785040497779846191e+00 -1.584223441779613495e+00
9.926803261041641235e-01 1.764765024185180664e+00 -1.566228958964347884e+00
1.016979470849037170e+00 1.768659949302673340e+00 -1.569685705006122589e+00
1.039316806197166487e+00 1.769049882888793945e+00 -1.570031771063804538e+00
1.057763528823852495e+00 1.762939214706420898e+00 -1.564608553051948459e+00
1.083976912498474166e+00 1.769758224487304688e+00 -1.570660424232482866e+00
1.096522733569145203e+00 1.754436373710632324e+00 -1.557062281668186277e+00
1.101112970709800631e+00 1.727236032485961914e+00 -1.532921978831291110e+00
1.118323135375976607e+00 1.720497131347656250e+00 -1.526941204071044833e+00
1.138924914598465010e+00 1.719131946563720703e+00 -1.525729602575302213e+00
1.155837625265121460e+00 1.712352037429809570e+00 -1.519712433218955994e+00
1.172113686800003052e+00 1.704892635345458984e+00 -1.513092213869094760e+00
1.190796613693237305e+00 1.701138019561767578e+00 -1.509759992361068726e+00
1.207960014045238450e+00 1.695382475852966309e+00 -1.504651947319507688e+00
1.235480892658233687e+00 1.704111576080322266e+00 -1.512399023771286100e+00
1.238864569365978330e+00 1.679816365242004395e+00 -1.490837024152278811e+00
1.351115494966506958e+00 1.801487326622009277e+00 -1.598820002377033145e+00
2.130593273043632330e+00 2.794220685958862305e+00 -2.479870858788490118e+00
0.000000000000000000e+00 1.828563809394836426e+00 -1.645707428455352783e+00
2.745306789875030448e-02 2.196245431900024414e+00 -1.976620888710022061e+00
8.016353249549865168e-02 3.206541299819946289e+00 -2.885887169837951571e+00
2.516872644424438255e-01 2.516872644424438477e+00 -2.265185379981994540e+00
2.245592594146728627e-01 1.996082305908203125e+00 -1.796474075317382901e+00
2.400349825620651245e-01 1.920279860496520996e+00 -1.728251874446868896e+00
2.736675858497619740e-01 1.990309715270996094e+00 -1.791278743743896396e+00
4.363374352455139382e-01 2.908916234970092773e+00 -2.618024611473083407e+00
4.977016389369964822e-01 2.212007284164428711e+00 -1.990806555747985929e+00
4.545795097947120667e-01 1.914018988609313965e+00 -1.722617089748382568e+00
4.713854491710662842e-01 1.885541796684265137e+00 -1.696987617015838667e+00
4.937180131673812866e-01 1.880830526351928711e+00 -1.692747473716735840e+00
5.372323423624039140e-01 1.953572154045104980e+00 -1.758214938640594527e+00
6.298166006803512795e-01 2.190666437149047852e+00 -1.971599793434143155e+00
6.684466838836670144e-01 2.228155612945556641e+00 -2.005340051651001154e+00
6.803563982248306274e-01 2.177140474319458008e+00 -1.959426426887512118e+00
6.866744518280029075e-01 2.112844467163085938e+00 -1.901560020446777299e+00
6.944157868623733743e-01 2.057528257369995117e+00 -1.851775431632995517e+00
7.023692965507507546e-01 2.006769418716430664e+00 -1.806092476844787686e+00
7.126340195536613464e-01 1.965886950492858887e+00 -1.769298255443572998e+00
7.181697785854339600e-01 1.915119409561157227e+00 -1.723607468605041548e+00
7.275191694498062134e-01 1.877468824386596680e+00 -1.689721941947937012e+00
7.511775493621826172e-01 1.877943873405456543e+00 -1.690149486064910889e+00
7.709266841411590576e-01 1.868913173675537109e+00 -1.682021856307983398e+00
7.918487310409545454e-01 1.863173484802246094e+00 -1.676856136322021573e+00
8.118964508175849915e-01 1.855763316154479980e+00 -1.670186984539032027e+00
8.322178959846496804e-01 1.849373102188110352e+00 -1.664435791969299361e+00
8.554512828588485274e-01 1.849624395370483398e+00 -1.664661955833435014e+00
8.769930124282836470e-01 1.846301078796386719e+00 -1.661670970916748091e+00
8.925751760601997598e-01 1.830923438072204590e+00 -1.647831094264984086e+00
9.101731777191162109e-01 1.820346355438232422e+00 -1.638311719894409269e+00
9.203843861818313821e-01 1.795871973037719727e+00 -1.616284775733947798e+00
9.397224426269531472e-01 1.789947509765625000e+00 -1.610952758789062411e+00
9.710782423615456072e-01 1.806657195091247559e+00 -1.625991475582122758e+00
9.868824839591979758e-01 1.794331789016723633e+00 -1.614898610115051314e+00
1.005096539855003357e+00 1.786838293075561523e+00 -1.608154463768005416e+00
1.020110005140304477e+00 1.774104356765747070e+00 -1.596693921089172408e+00
1.043269817531108812e+00 1.775778412818908691e+00 -1.598200571537017778e+00
1.069582700729370117e+00 1.782637834548950195e+00 -1.604374051094055176e+00
1.089580209553241641e+00 1.778906464576721191e+00 -1.601015818119049028e+00
1.104525476694107056e+00 1.767240762710571289e+00 -1.590516686439514160e+00
1.105510246753692583e+00 1.734133720397949219e+00 -1.560720348358154208e+00
1.115500628948211670e+00 1.716154813766479492e+00 -1.544539332389831543e+00
1.134516307711601169e+00 1.712477445602416992e+00 -1.541229701042175382e+00
1.156525209546089172e+00 1.713370680809020996e+00 -1.542033612728118896e+00
1.169584512710571289e+00 1.701213836669921875e+00 -1.531092453002929732e+00
1.201988375186920255e+00 1.717126250267028809e+00 -1.545413625240325883e+00
1.226756232976913497e+00 1.721763134002685547e+00 -1.549586820602417037e+00
1.245667839050292880e+00 1.718162536621093750e+00 -1.546346282958984464e+00
1.286935481429100081e+00 1.744997262954711914e+00 -1.570497536659240634e+00
1.283365488052368164e+00 1.711153984069824219e+00 -1.540038585662841797e+00
1.504213291406631514e+00 1.972738742828369141e+00 -1.775464868545532315e+00
2.336385613679885953e+00 3.014691114425659180e+00 -2.713222002983093351e+00
2.561811491847038269e+00 3.253093957901000977e+00 -2.927784562110900879e+00
2.641196250915527344e+00 3.301495313644409180e+00 -2.971345782279968262e+00
2.697056144475936890e+00 3.319453716278076172e+00 -2.987508344650268377e+00
2.755795955657958984e+00 3.340358734130859375e+00 -3.006322860717773438e+00
0.000000000000000000e+00 1.941064715385437012e+00 -1.771221552789211229e+00
2.980248332023620675e-02 2.384198665618896484e+00 -2.175581282377243131e+00
2.599036693572998047e-01 2.599036693572998047e+00 -2.371620982885360718e+00
2.214371278882026617e-01 1.968330025672912598e+00 -1.796101148426532790e+00
2.408211678266525269e-01 1.926569342613220215e+00 -1.757994525134563446e+00
2.754828214645385631e-01 2.003511428833007812e+00 -1.828204178810119540e+00
4.252178907394409402e-01 2.834785938262939453e+00 -2.586742168664932340e+00
4.712228715419769509e-01 2.094323873519897461e+00 -1.911070534586906344e+00
4.644657641649246327e-01 1.955645322799682617e+00 -1.784526357054710299e+00
4.792531132698059082e-01 1.917012453079223633e+00 -1.749273863434791521e+00
4.979478746652603038e-01 1.896944284439086914e+00 -1.730961659550666720e+00
5.449204742908477783e-01 1.981528997421264648e+00 -1.808145210146903992e+00
6.302176594734192339e-01 2.192061424255371094e+00 -2.000256049633025945e+00
6.647274971008301225e-01 2.215758323669433594e+00 -2.021879470348358243e+00
6.781318038702011108e-01 2.170021772384643555e+00 -1.980144867300987155e+00
6.868632078170776589e-01 2.113425254821777344e+00 -1.928500545024871782e+00
6.953320562839507835e-01 2.060243129730224609e+00 -1.879971855878829867e+00
7.054238557815551980e-01 2.015496730804443359e+00 -1.839140766859054477e+00
7.185551583766937034e-01 1.982221126556396484e+00 -1.808776777982711748e+00
7.213093936443328857e-01 1.923491716384887695e+00 -1.755186191201210111e+00
7.299858614802360313e-01 1.883834481239318848e+00 -1.718998964130878493e+00
7.390875816345214844e-01 1.847718954086303711e+00 -1.686043545603752136e+00
7.554476469755172507e-01 1.831388235092163086e+00 -1.671141764521598905e+00
7.745430916547775269e-01 1.822454333305358887e+00 -1.662989579141139984e+00
7.989937961101531982e-01 1.826271533966064453e+00 -1.666472774744033769e+00
8.232418835163116677e-01 1.829426407814025879e+00 -1.669351597130298570e+00
8.358943209052085432e-01 1.807339072227478027e+00 -1.649196903407573744e+00
8.381471931934356689e-01 1.764520406723022461e+00 -1.610124871134757996e+00
8.670111179351807085e-01 1.778484344482421875e+00 -1.622866964340210050e+00
8.929401636123657227e-01 1.785880327224731445e+00 -1.629615798592567444e+00
9.110484957695007546e-01 1.777655601501464844e+00 -1.622110736370086626e+00
9.426217496395110640e-01 1.795469999313354492e+00 -1.638366374373436019e+00
9.789984881877898948e-01 1.821392536163330078e+00 -1.662020689249038785e+00
1.000557070970535367e+00 1.819194674491882324e+00 -1.660015140473842576e+00
1.013533964753150940e+00 1.801838159561157227e+00 -1.644177320599556014e+00
1.031546384096145630e+00 1.793993711471557617e+00 -1.637019261717796326e+00
1.055050411820411593e+00 1.795830488204956055e+00 -1.638695320487022489e+00
1.085309314727783248e+00 1.808848857879638672e+00 -1.650574582815170332e+00
1.106075111031532332e+00 1.805836915969848633e+00 -1.647826185822486966e+00
1.113699451088905334e+00 1.781919121742248535e+00 -1.626001198589801744e+00
1.114100673794746310e+00 1.747608900070190430e+00 -1.594693121314048723e+00
1.118897539377212480e+00 1.721380829811096191e+00 -1.570760007202625319e+00
1.133665260672569230e+00 1.711192846298217773e+00 -1.561463472247123674e+00
1.148989784717559859e+00 1.702207088470458984e+00 -1.553263968229293912e+00
1.170841231942176819e+00 1.703041791915893555e+00 -1.554025635123252869e+00
1.208556449413299649e+00 1.726509213447570801e+00 -1.575439657270908400e+00
1.243839789927005723e+00 1.745740056037902832e+00 -1.592987801134586379e+00
1.266634705662727400e+00 1.747082352638244629e+00 -1.594212646782398268e+00
1.307953499257564545e+00 1.773496270179748535e+00 -1.618315346539020538e+00
1.343812197446823120e+00 1.791749596595764160e+00 -1.634971506893634796e+00
1.379347059130668685e+00 1.808979749679565430e+00 -1.650694021582603366e+00
2.066995257139205844e+00 2.667090654373168945e+00 -2.433720222115516751e+00
2.509851148724556058e+00 3.187112569808959961e+00 -2.908240219950676053e+00
2.572354507446289240e+00 3.215443134307861328e+00 -2.934091860055923373e+00
2.616875916719436646e+00 3.220770359039306641e+00 -2.938952952623367310e+00
2.676881986856460394e+00 3.244705438613891602e+00 -2.960793712735175998e+00
2.735112091898918241e+00 3.265805482864379883e+00 -2.980047503113746554e+00
2.782864272594451904e+00 3.273957967758178711e+00 -2.987486645579338074e+00
2.836672461032867520e+00 3.288895606994628906e+00 -3.001117241382599055e+00
2.892010658979415894e+00 3.305155038833618164e+00 -3.015953972935676575e+00
2.944859009981155573e+00 3.318150997161865234e+00 -3.027812784910202115e+00
2.994366431236267001e+00 3.327073812484741211e+00 -3.035954853892326444e+00
3.054434359073638916e+00 3.347325325012207031e+00 -3.054434359073638916e+00
3.091905099153518854e+00 3.342600107192993164e+00 -3.050122597813606173e+00
3.126217424869537354e+00 3.334631919860839844e+00 -3.042851626873016357e+00
3.157138061523437678e+00 3.323303222656250000e+00 -3.032514190673828214e+00
3.215070039033889771e+00 3.340332508087158203e+00 -3.048053413629531860e+00
3.266689950227737338e+00 3.350451231002807617e+00 -3.057286748290061862e+00
0.000000000000000000e+00 2.024462699890136719e+00 -1.872627997398376376e+00
3.296444118022918979e-02 2.637155294418334961e+00 -2.439368647336960017e+00
2.597730636596679576e-01 2.597730636596679688e+00 -2.402900838851928622e+00
